ply
format ascii 1.0
comment alvar_tracker Pointcloud
comment filenames frame_0000.jpg frame_0001.jpg frame_0002.jpg frame_0003.jpg frame_0004.jpg frame_0005.jpg frame_0006.jpg frame_0007.jpg frame_0008.jpg frame_0009.jpg frame_0010.jpg frame_0011.jpg frame_0012.jpg frame_0013.jpg frame_0014.jpg frame_0015.jpg frame_0016.jpg frame_0017.jpg frame_0018.jpg frame_0019.jpg frame_0020.jpg frame_0021.jpg frame_0022.jpg frame_0023.jpg frame_0024.jpg frame_0025.jpg frame_0026.jpg
comment filenames frame_0027.jpg frame_0028.jpg
element vertex 726
property float x
property float y
property float z
property uchar red
property uchar green
property uchar blue
property float nx
property float ny
property float nz
element vtt_fi_alvar_camera 0
property float fx
property float fy
property float lambda
property float px
property float py
property int width
property int height
element vtt_fi_alvar_keyframe 0
property float x
property float y
property float z
property float qw
property float qx
property float qy
property float qz
property int camera_index
property list int int vertex_index
property list int float projections
end_header
0.3573 1.26544 23.5465 65 52 46 -0.0136045 -0.876644 -0.480947
-8.45322 0.153882 16.4034 133 122 116 -0.230062 -0.927569 -0.294427
4.91454 1.49508 23.0481 130 112 102 -0.213318 -0.8765 -0.431559
3.50143 1.56139 20.1054 86 73 64 -0.148205 -0.916417 -0.371773
1.73304 1.42671 21.7847 91 75 62 -0.0316881 -0.899412 -0.435953
2.97641 1.35141 7.94467 102 79 71 -0.490878 -0.869375 -0.0568043
-10.6856 -0.520966 9.7427 106 91 84 -0.176087 -0.977007 -0.120208
-21.9675 1.96237 5.99398 64 65 69 0.123483 -0.992288 -0.010773
-4.08713 -0.176767 9.98729 81 66 59 -0.165427 -0.978388 -0.124056
0.24672 1.34135 22.5557 78 61 45 0.142046 -0.874258 -0.464216
-0.859007 1.34323 19.7879 111 97 86 0.0572579 -0.926067 -0.37299
3.47852 1.5282 19.7301 90 69 52 -0.286985 -0.893303 -0.345903
-21.2445 1.64984 6.74371 116 110 110 0.104389 -0.99402 -0.0320503
8.04115 0.431303 6.77247 58 41 34 -0.56478 -0.824775 -0.0277462
-6.45836 -0.605984 11.0124 180 167 159 -0.0757077 -0.984871 -0.155878
-4.96199 -0.511373 11.6191 122 108 99 -0.200683 -0.965621 -0.165233
-1.59259 1.19932 20.974 172 158 147 -0.211776 -0.90139 -0.377685
6.03464 -0.759564 0.503705 53 42 36 -0.579064 -0.805588 0.12535
7.91725 0.335049 7.76779 81 63 53 -0.586405 -0.808483 -0.0498338
-1.21702 -1.01768 13.3781 67 49 37 -0.203019 -0.954636 -0.217838
1.16032 1.34935 23.7736 137 129 126 -0.10691 -0.8767 -0.469006
1.24625 1.28119 7.87106 61 37 25 -0.0900374 -0.99433 -0.0565869
5.59102 0.454981 1.52933 58 40 30 -0.392365 -0.913851 0.10453
2.89326 1.33155 8.33983 67 45 34 -0.129178 -0.989161 -0.0698075
-12.8428 -0.633086 9.31543 157 148 149 -0.120349 -0.98657 -0.110433
-7.72638 -0.334806 7.49468 74 64 62 -0.0546826 -0.99717 -0.0515998
-5.14218 -0.482231 11.4259 155 141 132 0.0617447 -0.983272 -0.17136
-4.02608 0.0672508 12.7889 117 107 98 -0.23222 -0.953271 -0.193255
-11.2375 -0.49803 7.28532 102 88 87 -0.136862 -0.989374 -0.0490628
-12.4681 -0.188124 10.2585 149 139 137 0.15668 -0.979141 -0.129357
-6.08352 -0.506921 9.83585 138 121 111 -0.113148 -0.986073 -0.121889
8.16427 -0.0112813 1.13303 106 95 89 -0.604842 -0.789355 0.10528
-4.4801 0.0968936 12.6956 108 91 81 -0.156648 -0.968131 -0.195407
1.83292 1.48426 19.2369 92 74 60 -0.408958 -0.854289 -0.320848
-13.5363 -1.15299 8.10497 55 49 51 -0.068735 -0.994872 -0.0741997
5.14492 0.893216 1.60639 161 142 127 -0.464906 -0.880248 0.0950075
-2.49593 1.16453 22.8731 81 68 60 -0.0426159 -0.894528 -0.444976
0.565217 1.22301 8.23297 71 51 42 -0.269036 -0.960329 -0.0734008
-4.80315 -0.433275 11.7044 180 169 167 -0.145066 -0.97401 -0.173957
11.9622 0.783795 3.69258 86 73 65 -0.462039 -0.88576 0.0441524
-0.915353 1.23035 20.2315 83 70 64 -0.226141 -0.900852 -0.370575
6.92323 -0.939004 0.644143 152 147 141 -0.595603 -0.794139 0.12083
-6.30618 -0.617493 9.57028 179 164 157 -0.129919 -0.984629 -0.11673
-17.6205 1.83294 8.2963 107 103 104 0.00208929 -0.997127 -0.0757192
2.27999 1.43751 22.4424 87 71 58 -0.413202 -0.825089 -0.385347
-17.732 1.86855 3.60965 95 91 92 0.00523202 -0.998399 0.056314
3.39996 1.41336 1.03645 38 24 21 -0.495213 -0.861641 0.111079
-1.99222 1.28514 21.2348 80 71 66 -0.361002 -0.852175 -0.378781
-3.56211 -0.592055 12.3293 170 163 157 -0.366403 -0.9123 -0.182915
5.04871 1.47106 22.2424 94 75 60 -0.343006 -0.851824 -0.395907
1.82905 1.58314 1.65856 150 138 138 -0.0363137 -0.990792 0.130432
-11.2257 -0.549125 11.4068 93 85 83 -0.0760871 -0.983411 -0.164663
-6.33059 -0.601999 11.0215 142 129 121 0.0431121 -0.986978 -0.154971
-21.1493 1.72649 4.5649 68 63 60 0.101519 -0.994399 0.0293986
-2.08332 -0.998512 12.8086 80 58 47 0.0160396 -0.977684 -0.209466
-7.17235 -0.470807 11.1049 100 90 89 0.344256 -0.926815 -0.150007
-16.8448 1.77644 6.68646 49 44 38 -0.0198379 -0.999338 -0.0304876
9.10666 -0.196847 9.19894 163 150 142 -0.426127 -0.899866 -0.0930415
10.6663 0.273442 18.1908 93 82 76 -0.61575 -0.738537 -0.274618
-5.85251 -0.957424 9.20333 118 108 106 -0.183456 -0.977411 -0.104934
9.9406 -0.176526 12.4471 90 80 71 -0.539098 -0.826686 -0.161133
5.7083 0.341438 4.03352 179 162 144 -0.526433 -0.849371 0.0379058
0.429942 1.40443 22.3198 76 63 55 0.219672 -0.870393 -0.440637
-18.7806 1.94998 7.89711 99 95 94 0.0346605 -0.99733 -0.0642748
6.47141 -0.384064 1.31458 112 104 102 0.0198293 -0.987676 0.155248
-20.4197 1.44906 2.82657 141 136 130 0.081533 -0.99354 0.0789316
-1.30976 1.18002 21.0037 139 126 118 -0.341872 -0.864038 -0.369543
3.59311 1.40975 6.2421 77 54 46 -0.255009 -0.966836 -0.0140519
-11.1179 -0.690225 10.9224 56 50 52 -0.17105 -0.973067 -0.154541
1.59932 1.31203 23.7487 154 143 137 -0.207936 -0.869954 -0.447149
-1.74308 1.2459 24.5153 145 128 118 -0.0314016 -0.862167 -0.50565
-5.58383 -0.770127 12.1468 127 114 106 -0.284715 -0.941287 -0.181428
-9.93439 -0.326629 1.20959 62 59 52 -0.221396 -0.966755 0.127937
-11.2304 -0.675604 10.8583 126 120 122 -0.157742 -0.975672 -0.152254
-7.01539 -0.92397 8.78961 134 125 128 -0.140632 -0.985476 -0.0951828
1.2108 1.31422 19.5338 84 67 59 -0.38052 -0.864116 -0.329407
-6.39538 -1.19261 7.27843 63 53 61 -0.325291 -0.944358 -0.0487212
-3.69051 -0.722994 7.16276 65 50 43 -0.264133 -0.963431 -0.0451047
4.40893 1.41857 24.8774 82 64 52 -0.0352064 -0.860804 -0.507718
-0.208457 -0.923579 13.8632 75 58 50 -0.184273 -0.953765 -0.237435
1.71336 1.62949 3.15792 157 148 151 0.242242 -0.965967 0.0906988
1.11744 1.64142 3.16197 150 143 150 -0.161658 -0.984686 0.0652701
2.53393 1.36754 21.9033 47 32 13 -0.0405458 -0.900597 -0.432759
0.30197 1.27098 21.4811 47 27 16 -0.144314 -0.906749 -0.396206
1.10141 1.61402 3.3641 135 129 133 -0.398908 -0.915459 0.0529799
2.86999 1.40993 22.7133 49 33 20 -0.402905 -0.828181 -0.389594
3.14394 1.41747 19.608 54 33 14 -0.178253 -0.918033 -0.354176
1.08453 1.28884 21.1915 49 31 17 -0.128402 -0.905702 -0.404
3.93788 1.54099 20.3559 70 51 34 -0.339623 -0.872009 -0.352501
0.62027 1.28868 21.2561 38 21 5 -0.115013 -0.908559 -0.401611
0.607095 1.65974 3.03203 138 134 135 -0.129872 -0.988427 0.0783946
-0.670199 1.22018 19.3941 45 29 14 -0.0713121 -0.925953 -0.370844
0.306421 1.64154 2.83752 21 7 4 -0.027807 -0.995949 0.0855139
-0.416894 1.24361 22.9116 53 35 23 -0.249836 -0.878495 -0.40722
0.187971 1.27595 19.0497 73 56 38 -0.303643 -0.894975 -0.326834
-0.437104 1.23626 19.2948 57 44 28 -0.225503 -0.911623 -0.343646
-1.28393 1.19723 19.9891 47 29 17 0.190471 -0.903994 -0.382773
-0.332702 1.24545 22.4286 50 34 19 -0.353571 -0.848167 -0.394461
11.9966 0.231175 18.0336 199 204 210 -0.543871 -0.792587 -0.2757
-0.521692 1.21909 19.4167 43 29 16 -0.0930158 -0.926417 -0.364827
-8.66396 16.054 28.0635 77 72 66 -0.136514 -0.904386 -0.404289
3.41478 1.79154 3.20245 127 116 120 -0.443808 -0.894406 0.0554225
-0.337014 1.24088 22.5686 52 38 29 0.0383673 -0.892758 -0.448901
4.80997 1.49257 21.9689 66 48 28 -0.102398 -0.896542 -0.430961
-1.27816 1.20498 19.853 52 36 21 -0.184408 -0.915912 -0.35651
-2.04848 1.15864 20.8238 47 34 18 0.0886784 -0.907246 -0.411146
3.78113 1.55513 20.4838 163 145 131 -0.0848058 -0.918202 -0.386928
1.83251 1.48634 19.2164 65 48 32 -0.256718 -0.906553 -0.335048
-6.24599 -0.817824 9.34648 81 71 62 -0.177011 -0.97849 -0.10595
-3.67924 -0.0472954 12.6813 127 117 107 -0.300067 -0.935044 -0.188819
2.09974 1.45464 22.0792 70 54 38 -0.423784 -0.822834 -0.378618
14.6757 0.978351 3.84143 112 102 103 -0.0937402 -0.992982 0.072113
3.90338 1.477 20.1086 93 77 54 0.0928236 -0.915224 -0.392108
8.3197 0.380276 10.5317 63 48 41 -0.413043 -0.901759 -0.12738
2.15889 1.36531 19.6605 120 99 80 -0.24348 -0.905302 -0.34806
-2.27843 1.16818 21.622 43 27 12 -0.0488104 -0.907643 -0.416896
2.48415 1.37118 19.1329 70 49 30 -0.176471 -0.918836 -0.352986
-6.89099 -0.680617 11.6692 126 119 111 0.0977445 -0.979547 -0.175878
0.00801073 1.3874 19.3402 77 60 42 -0.31036 -0.891415 -0.330235
2.30839 1.41666 23.0551 155 139 123 -0.36649 -0.840238 -0.399606
-1.05436 1.2254 20.2458 167 151 136 0.163891 -0.891688 -0.421939
14.9065 0.98072 6.02487 62 48 37 -0.569835 -0.821671 -0.0120239
2.08029 1.36872 19.794 162 143 128 -0.238705 -0.903231 -0.356641
-0.00889271 1.22341 6.02843 23 4 0 -0.146001 -0.989184 -0.0140689
3.46799 1.57143 19.9985 69 52 36 -0.0267637 -0.916692 -0.398696
13.773 0.76314 12.5812 63 53 51 -0.611049 -0.777053 -0.151022
-6.99736 -0.435104 5.17432 89 77 65 -0.00848111 -0.999812 0.0174298
7.71685 -0.305311 1.2666 108 98 89 -0.362711 -0.924468 0.117469
6.14842 0.787031 17.4336 77 65 53 -0.376872 -0.881109 -0.285681
1.93601 1.32933 23.8305 69 53 38 -0.184356 -0.877486 -0.442753
13.9619 0.917407 3.91971 51 39 27 -0.518286 -0.854423 0.0366155
0.592438 1.40695 21.7971 61 42 25 -0.0589179 -0.897414 -0.437239
4.5432 1.6017 21.5139 67 49 29 -0.315132 -0.866417 -0.387316
11.0751 0.554772 10.0521 63 51 37 -0.575107 -0.811668 -0.102205
-5.60596 -0.474945 10.5182 140 126 113 -0.298918 -0.944495 -0.136301
10.1159 -0.455903 1.56253 67 55 43 -0.391522 -0.912594 0.117821
0.384287 1.65733 3.03428 138 129 132 -0.0910883 -0.993142 0.0732975
7.03632 0.851612 20.1651 79 69 60 -0.394619 -0.853283 -0.340858
-5.25466 -0.507591 11.3408 105 91 80 0.164511 -0.972519 -0.164751
-4.91757 -0.00651366 17.5653 139 129 117 -0.227923 -0.922448 -0.311674
-10.112 -0.66444 11.8654 79 74 70 -0.178577 -0.967402 -0.179563
-7.79059 -0.363973 9.83726 55 44 38 -0.242326 -0.962891 -0.118825
2.89901 1.35313 7.94194 55 33 19 -0.212527 -0.974972 -0.0652808
8.21978 0.713758 12.9565 78 65 56 -0.549912 -0.817946 -0.169001
9.70122 -0.219276 12.4296 58 46 34 -0.502603 -0.848563 -0.165319
4.29203 1.59577 21.3212 159 138 117 -0.380585 -0.850028 -0.364152
9.44683 0.143332 11.7344 140 123 113 -0.244885 -0.954429 -0.170577
11.72 0.767928 3.78351 57 43 32 -0.473199 -0.879691 0.0471857
4.55411 1.62754 22.1988 160 138 115 -0.239983 -0.881909 -0.405764
-0.357932 1.26116 19.7371 155 142 125 0.0276426 -0.920875 -0.388876
7.72025 0.382521 7.79807 66 47 32 -0.416997 -0.907063 -0.0578833
2.99392 1.44186 19.8847 137 118 101 -0.048056 -0.919804 -0.389424
6.57147 0.797029 23.2212 101 94 84 -0.319109 -0.848884 -0.421385
-8.95346 -0.230684 1.25267 79 70 63 -0.208298 -0.970278 0.123179
-4.4624 -0.231953 12.0097 163 153 144 -0.214237 -0.960856 -0.175664
-0.751557 1.24189 20.3713 103 91 79 -0.221751 -0.901453 -0.371766
-15.6161 -2.3351 2.45809 91 82 77 -0.02002 -0.995075 0.0970806
-10.5763 -0.452739 1.22077 82 78 66 0.464699 -0.873811 0.14321
10.9478 0.521194 18.5845 92 85 79 -0.577445 -0.766157 -0.282065
-4.78336 -0.42418 11.702 164 154 144 -0.20728 -0.963618 -0.168747
-6.5413 -0.61193 10.9803 100 88 76 0.100423 -0.982907 -0.154299
-17.0992 1.63894 8.2642 86 81 77 0.0210849 -0.997139 -0.0725901
2.18644 1.34409 23.4441 67 50 34 -0.229554 -0.871482 -0.433386
-5.42435 -0.997356 9.19682 123 114 109 -0.280912 -0.954395 -0.101087
0.295788 1.63191 3.23545 85 75 74 -0.229946 -0.970822 0.0680408
0.962275 1.58831 1.77262 128 119 112 -0.431774 -0.896851 0.0960676
18.6486 -1.19843 15.3087 132 116 101 -0.655539 -0.726288 -0.206821
-5.90536 -0.932784 9.23541 146 139 131 -0.0702196 -0.992148 -0.103492
1.90574 1.41548 23.4199 119 109 100 -0.0773094 -0.890727 -0.447915
-4.93651 -0.498991 11.6157 104 92 80 0.031187 -0.984435 -0.172958
2.80415 1.32877 8.35085 46 22 10 -0.471759 -0.879149 -0.0673798
-15.5173 -1.97948 2.47136 46 37 32 -0.0228474 -0.995157 0.0956097
9.85823 -0.5335 8.19021 67 58 51 -0.266665 -0.961268 -0.0696731
1.6868 -0.82407 12.1123 107 84 70 -0.362767 -0.915157 -0.17575
0.759061 -0.868818 14.3963 60 41 27 -0.337169 -0.911345 -0.236153
1.36229 1.3347 19.458 123 103 78 -0.14686 -0.920287 -0.362634
-2.37596 -1.01939 12.632 58 41 23 -0.176236 -0.964011 -0.199055
-10.5027 -0.715178 11.3563 43 38 34 -0.168088 -0.971782 -0.16549
-5.11213 -0.459719 11.4211 144 130 119 -0.20895 -0.964738 -0.160063
-3.96433 0.0991258 12.8087 104 94 82 -0.13439 -0.969898 -0.203071
8.44464 0.065489 12.4436 57 43 34 -0.555963 -0.815735 -0.159629
-6.22644 -0.741367 9.4753 168 155 146 -0.258085 -0.959953 -0.109006
6.85471 0.835878 20.1326 84 71 62 -0.348989 -0.866976 -0.355751
-6.31072 -1.43233 7.17144 107 99 96 -0.163904 -0.985319 -0.0477752
-4.71533 0.220208 17.9246 85 75 65 -0.302176 -0.898214 -0.31922
-7.18948 -0.481971 11.1298 102 97 91 -0.257477 -0.953717 -0.155335
9.99786 -0.349294 17.9266 62 54 43 -0.415451 -0.855032 -0.310356
0.424788 1.40576 22.7029 121 114 108 -0.147447 -0.889306 -0.432891
2.73108 1.38262 22.2418 27 13 2 -0.348768 -0.855447 -0.382845
1.45839 1.30679 21.2101 30 14 0 -0.356771 -0.859572 -0.365856
1.19025 1.64848 3.05169 127 123 124 -0.253654 -0.965249 0.062888
2.46869 1.36015 21.872 33 16 0 -0.374666 -0.84779 -0.375336
1.75321 1.60684 3.29891 116 115 113 -0.353684 -0.933664 0.0563796
11.7391 0.188181 26.1459 227 222 218 -0.546251 -0.724985 -0.419532
3.15952 1.42499 19.6736 43 24 9 -0.419455 -0.847069 -0.326391
1.04431 1.2856 21.2085 39 21 7 -0.263492 -0.888284 -0.376196
-0.420086 1.25763 22.8598 38 22 6 -0.097894 -0.892956 -0.43937
-8.72033 1.51788 17.2722 40 36 25 -0.10431 -0.949348 -0.296408
3.18532 1.77503 3.08313 110 102 100 -0.171983 -0.982544 0.0709117
11.9813 0.577767 26.799 193 190 183 -0.447992 -0.769978 -0.454353
-8.09829 6.50031 28.3551 52 48 37 -0.174628 -0.860908 -0.477851
-0.696604 1.22157 19.4646 40 24 8 -0.124598 -0.922418 -0.365541
11.7675 0.3756 27.5419 190 187 182 -0.547613 -0.711312 -0.44063
-1.80272 1.19935 20.8364 65 51 38 -0.328698 -0.870247 -0.366915
0.433165 1.58471 3.56134 106 105 101 -0.246508 -0.967762 0.0516778
23.3477 -1.30579 12.3855 47 31 18 -0.62327 -0.765953 -0.15764
1.44798 0.515932 28.4448 31 21 11 -0.0778032 -0.813811 -0.575898
0.690912 1.66012 2.93279 107 103 100 -0.248371 -0.966287 0.0678354
1.62771 0.540757 28.4199 37 27 17 -0.311368 -0.804762 -0.505379
17.1607 0.692247 1.51279 107 100 94 -0.386995 -0.912015 0.135882
0.146797 1.30902 24.0083 36 20 7 -0.206265 -0.871735 -0.444447
-0.461656 1.22595 19.3544 42 26 13 -0.212349 -0.912824 -0.348798
2.29515 1.34831 19.213 27 9 0 -0.295307 -0.896175 -0.331154
9.53945 0.523644 29.5747 255 249 243 -0.424245 -0.749457 -0.508262
1.30912 1.31094 19.0538 31 14 0 -0.147698 -0.924373 -0.351737
11.9802 0.253087 18.0015 178 182 185 -0.582473 -0.767554 -0.267556
0.1419 1.27767 23.1317 136 119 99 -0.338329 -0.849756 -0.404288
-8.68552 2.48833 29.3999 146 148 143 -0.0914277 -0.846482 -0.524508
2.18809 1.45785 24.0816 46 30 17 -0.374497 -0.829645 -0.414055
4.83209 1.49284 21.9346 61 43 23 -0.30658 -0.869474 -0.387328
3.06361 1.68566 3.60148 105 101 100 -0.200738 -0.978142 0.0542424
0.189143 1.28222 19.1003 56 37 22 -0.334071 -0.885025 -0.324233
2.8358 1.41625 23.148 34 20 9 -0.37494 -0.837558 -0.397388
-1.25007 1.19969 19.8879 59 43 27 -0.319128 -0.882896 -0.344459
1.2034 1.31064 23.9049 34 22 8 -0.149476 -0.872073 -0.465988
1.61423 0.514859 28.5683 53 43 31 -0.0912176 -0.828125 -0.553072
-4.79468 -0.397237 11.0817 139 129 117 -0.291519 -0.944725 -0.150038
3.47961 1.75704 3.08096 80 74 74 -0.210801 -0.975174 0.0678136
4.45378 1.45523 21.0609 36 17 2 -0.331399 -0.869063 -0.367294
-4.65627 -0.372463 11.0956 39 27 15 -0.294771 -0.943698 -0.150146
0.0912473 1.32693 22.5968 126 107 90 -0.256552 -0.876914 -0.406452
0.755537 0.455399 28.4042 90 80 68 -0.323519 -0.79822 -0.508114
0.700884 1.28272 23.8721 40 27 11 -0.392516 -0.819257 -0.41803
-0.016635 1.24281 21.6972 36 20 4 -0.0774506 -0.908893 -0.409774
4.67648 1.52152 21.998 124 107 89 -0.223722 -0.884519 -0.409359
3.73454 1.54689 20.5016 139 123 107 -0.357764 -0.866288 -0.34864
2.67664 1.43073 23.6039 31 19 5 -0.266188 -0.866794 -0.421678
1.02889 1.28783 23.8607 123 111 99 -0.39887 -0.816949 -0.41653
0.325726 1.64011 2.75398 18 3 0 0.294124 -0.950681 0.0984741
2.53554 1.48107 23.8378 50 34 19 -0.392881 -0.823913 -0.408425
-0.80245 0.391206 27.5777 61 48 32 -0.180236 -0.828657 -0.529946
4.45074 1.45341 20.9016 85 67 47 -0.415546 -0.840033 -0.348806
-2.04321 1.16886 20.8582 43 30 14 -0.323604 -0.872043 -0.36718
15.054 0.976845 5.99901 51 38 22 -0.429838 -0.902878 -0.00715365
0.00379803 1.39541 19.4055 42 29 12 -0.306476 -0.892389 -0.331233
7.1392 -0.637321 12.451 97 87 77 -0.564365 -0.809388 -0.162429
7.74402 0.704318 26.1368 38 28 18 -0.330392 -0.816133 -0.474097
-0.0140595 1.27878 22.8685 48 34 21 0.0275616 -0.890829 -0.453502
0.633279 0.250478 17.8356 58 54 45 -0.384032 -0.873075 -0.300433
1.53056 1.3071 23.8095 118 106 92 -0.143465 -0.878681 -0.455343
2.63391 1.52467 19.5469 46 32 19 -0.181629 -0.915227 -0.359681
14.1861 0.937411 3.78162 31 19 3 -0.412509 -0.909629 0.0490994
-11.0644 -0.486886 4.90972 50 41 26 -0.11258 -0.993449 0.0195931
-5.31053 -0.547297 11.392 47 38 23 -0.307119 -0.938391 -0.158432
2.27783 1.47002 22.5084 105 89 74 -0.164239 -0.89566 -0.413302
-6.94228 -0.671997 11.7279 87 82 76 -0.161944 -0.971989 -0.170325
2.46853 1.36804 19.1687 52 34 14 -0.35235 -0.879104 -0.320975
2.05722 1.36004 19.6373 76 55 36 -0.282884 -0.89598 -0.342341
2.05315 1.35765 23.5342 141 125 109 -0.374479 -0.834086 -0.405052
0.887763 1.42705 19.1758 41 27 14 -0.318635 -0.890345 -0.325204
3.49152 1.57065 20.0023 65 48 32 -0.0769696 -0.923842 -0.374955
3.35745 1.48305 19.6444 63 37 20 -0.079145 -0.926843 -0.367012
-6.45816 -0.743311 11.5756 142 130 114 -0.236738 -0.957399 -0.165353
-6.64089 -0.599072 11.0956 132 120 106 0.0641046 -0.985781 -0.155327
0.936128 1.40468 22.0054 72 63 56 -0.193961 -0.896313 -0.398751
0.402912 1.65751 2.9368 110 102 99 -0.236946 -0.969243 0.0665113
1.7679 0.48816 28.9246 36 27 12 -0.148528 -0.825912 -0.543884
-11.2048 -0.530838 11.4411 52 46 34 -0.0454669 -0.985518 -0.16336
-12.1506 -0.467604 10.2282 107 98 89 0.0478478 -0.989929 -0.133231
9.53843 0.134079 11.736 110 94 79 -0.540281 -0.829254 -0.142946
-0.103286 1.23185 21.9075 135 118 98 -0.103038 -0.902431 -0.418332
11.8767 0.784354 3.66247 39 26 10 -0.42178 -0.90484 0.0580134
-2.18304 1.16907 23.5541 123 111 97 0.309757 -0.82375 -0.474854
1.55549 1.32285 18.9436 53 35 15 -0.151613 -0.924916 -0.348631
0.156243 1.29176 22.4404 40 27 11 -0.352287 -0.850198 -0.391226
1.79952 1.48877 19.2568 46 27 10 -0.211504 -0.913758 -0.346861
6.12145 0.781051 17.4592 70 61 46 -0.32568 -0.896308 -0.30094
7.02264 0.850252 20.1673 64 52 40 -0.491977 -0.807537 -0.325334
7.82786 0.373881 7.78748 45 29 13 -0.570994 -0.819451 -0.0496564
-0.939987 1.22273 20.2444 54 40 27 0.0274555 -0.923759 -0.381989
4.75857 1.49247 22.889 100 83 67 -0.437201 -0.814013 -0.38241
2.90212 1.40594 20.0135 99 81 61 -0.258445 -0.897149 -0.358231
0.510243 0.459482 28.5905 79 69 59 -0.176472 -0.831649 -0.526514
-1.51307 1.16603 20.875 61 54 38 -0.0633709 -0.914232 -0.400206
10.0822 0.0369318 26.1666 58 48 38 -0.522976 -0.736693 -0.428695
-7.42085 0.154813 12.1873 108 101 93 0.077934 -0.979761 -0.184375
13.6807 0.71033 13.5634 18 11 3 -0.613863 -0.770792 -0.170447
0.442603 1.32843 19.4528 138 122 106 -0.124252 -0.923831 -0.362074
7.07089 0.901422 30.2246 52 42 30 -0.232449 -0.800664 -0.552182
2.1573 1.39756 22.3017 53 37 21 -0.207278 -0.890075 -0.405959
-6.6135 -0.667328 11.3915 128 115 99 -0.079645 -0.983373 -0.163198
-12.8968 -0.605458 9.32447 123 116 106 -0.046901 -0.993223 -0.106344
15.7552 0.947828 10.1166 49 35 22 -0.409638 -0.904427 -0.119197
0.709117 1.39802 19.8937 47 36 18 -0.370613 -0.865471 -0.337054
-1.12429 0.4633 29.9697 54 46 33 -0.177413 -0.810535 -0.558173
-7.01431 -0.686921 11.841 26 19 13 0.276515 -0.943815 -0.180975
-8.52851 14.599 28.5084 115 112 103 -0.143957 -0.896835 -0.418287
-6.74208 -0.673282 11.4408 49 40 25 -0.0450638 -0.984967 -0.166762
-1.2709 1.20296 25.1617 116 106 94 0.0600675 -0.863228 -0.501227
1.87772 1.33963 23.7318 57 41 26 0.0069319 -0.886874 -0.46196
3.08712 0.583494 27.8856 63 54 39 -0.383079 -0.786408 -0.484574
1.92806 1.43219 21.9591 129 113 97 -0.130901 -0.904204 -0.406545
-8.89308 1.2371 25.425 55 48 38 -0.114724 -0.874583 -0.471108
1.73142 0.41804 29.0439 89 79 69 -0.364745 -0.778487 -0.510802
4.05175 0.69608 17.3199 59 47 31 -0.483954 -0.830539 -0.275668
10.391 0.117753 8.21482 47 39 28 -0.581587 -0.811273 -0.0599433
9.73313 -0.406547 27.6828 77 69 58 -0.286648 -0.783299 -0.551612
9.84408 -0.053618 11.8799 116 100 87 -0.329586 -0.92798 -0.17386
6.74246 0.828373 20.1174 95 81 68 -0.498277 -0.803778 -0.325054
0.320179 1.29157 22.0068 112 95 75 -0.192079 -0.892831 -0.407379
11.275 0.388873 12.1881 65 58 50 -0.454545 -0.875955 -0.161528
11.2261 0.599508 10.0718 65 53 39 -0.586922 -0.803431 -0.100107
2.91039 0.574462 27.7559 125 113 99 0.0409957 -0.804895 -0.591999
-0.430709 1.31477 19.9846 57 41 26 -0.0106501 -0.925097 -0.37958
-8.68321 -0.603868 11.6484 91 87 78 -0.0773849 -0.981649 -0.174287
10.5272 0.329351 26.9046 72 64 53 -0.462346 -0.762055 -0.453331
-1.11135 0.487004 29.8224 90 82 69 -0.0903855 -0.807011 -0.583578
1.79229 1.48899 22.1124 78 68 59 -0.228387 -0.88797 -0.399186
-11.1028 -0.595206 11.4398 86 79 69 -0.124005 -0.978432 -0.165209
4.65706 1.50679 21.191 57 39 17 -0.159826 -0.90275 -0.399373
6.53081 0.785774 23.1102 52 43 28 -0.251425 -0.865685 -0.432868
2.95238 1.49804 20.2055 115 99 83 -0.259778 -0.89865 -0.353473
-6.77063 -0.442101 9.66341 118 102 87 0.203429 -0.972751 -0.111232
1.01969 0.491255 28.6541 46 34 22 0.0910654 -0.789764 -0.606613
-15.9102 -0.288377 8.90171 79 75 66 0.197591 -0.975647 -0.0952428
12.6012 0.68868 13.3154 59 51 38 -0.505231 -0.843952 -0.180237
-2.56434 1.11946 22.7709 37 25 11 -0.330979 -0.850191 -0.409425
-2.01097 1.2704 21.2743 38 28 16 -0.34649 -0.859395 -0.376013
-8.67295 1.3307 21.0899 92 90 78 -0.194413 -0.900608 -0.388727
-8.67695 2.80245 29.3449 166 167 162 -0.0830679 -0.848792 -0.52216
-6.38787 -0.603441 10.9934 135 123 107 -0.0714488 -0.985054 -0.156729
15.9629 0.836872 10.2714 119 103 87 -0.573739 -0.812318 -0.104703
0.286266 0.342211 29.0438 105 95 86 -0.0924217 -0.816455 -0.569964
-14.2991 -1.12915 7.86348 51 45 31 -0.062313 -0.995914 -0.065356
-8.52956 1.17246 17.065 63 57 43 -0.133658 -0.945758 -0.296103
2.1461 1.37649 23.3206 43 30 14 -0.126521 -0.872333 -0.472259
18.0657 0.497738 1.7906 100 94 82 -0.700623 -0.709169 0.0787832
-11.0944 -0.643512 6.9991 107 99 86 0.100708 -0.994253 -0.0363242
4.77299 1.49372 23.8697 68 51 35 0.121927 -0.858316 -0.498426
4.11041 1.6083 20.7393 54 38 22 -0.2355 -0.896317 -0.375707
1.31277 1.32201 19.4347 116 96 72 -0.192318 -0.917429 -0.348335
9.00291 -0.188168 9.18703 128 116 102 -0.450857 -0.887836 -0.0920636
-4.10354 0.254666 17.0285 70 58 44 -0.247798 -0.922979 -0.294459
-10.5505 -0.537826 11.79 70 64 52 -0.167162 -0.970242 -0.175178
-7.52203 -0.345866 7.24011 42 35 27 0.0491392 -0.997801 -0.0444885
17.1291 0.802121 11.4177 100 89 83 -0.614389 -0.779043 -0.124975
-4.31218 0.25119 16.9983 52 40 26 0.090411 -0.94556 -0.312638
9.39076 -0.151576 9.55818 61 49 37 -0.407194 -0.90764 -0.101892
2.31664 1.38486 22.8001 63 47 31 -0.123745 -0.887939 -0.443003
-6.20049 -1.02918 8.17877 98 91 85 0.132418 -0.988356 -0.0749582
-6.06631 -0.532131 9.93782 77 62 41 0.0587585 -0.99094 -0.120771
16.5486 0.65223 10.9792 88 79 64 -0.595201 -0.794622 -0.119628
-5.67551 -1.04517 8.66808 112 99 90 -0.0498305 -0.995097 -0.0854386
-0.548826 1.23859 25.6541 104 90 81 -0.264373 -0.844243 -0.46622
-6.61283 -0.514156 9.78513 101 88 71 -0.0651784 -0.990335 -0.122424
17.5812 0.660329 11.1973 86 76 67 -0.632936 -0.764808 -0.120249
16.4898 0.0745488 3.6733 61 57 56 -0.689795 -0.722798 0.041786
4.23622 1.4521 24.7326 65 46 29 -0.181832 -0.866741 -0.464432
-2.34384 -1.01172 12.6449 49 30 15 -0.178025 -0.963817 -0.198402
-6.7624 -0.712735 11.6154 46 38 27 0.0987776 -0.980524 -0.169751
-14.422 -0.470488 5.54898 100 91 76 -0.0579471 -0.998314 0.00341832
11.3406 0.703965 7.56276 54 41 25 -0.589871 -0.806298 -0.0440103
17.7245 -0.53556 8.31051 50 37 21 -0.666856 -0.742965 -0.0575002
5.86543 -0.593745 12.8427 67 50 34 -0.38656 -0.901873 -0.192864
17.57 0.552194 9.03243 111 95 79 -0.670688 -0.73836 -0.0707257
3.87516 0.673879 17.3656 74 62 48 -0.082546 -0.939192 -0.333325
7.07306 0.912116 30.0545 100 91 76 -0.0909285 -0.803122 -0.588835
17.3287 -0.486026 3.20876 8 3 0 -0.70436 -0.707986 0.0513105
-6.51681 -0.666807 9.41937 69 55 42 -0.0120494 -0.993488 -0.113298
16.6318 0.813506 12.4823 109 96 87 -0.643552 -0.75201 -0.142555
1.87723 1.33945 23.9712 126 109 91 0.0158473 -0.872918 -0.487609
8.26699 0.165393 9.80533 53 40 31 -0.37478 -0.920786 -0.108131
4.47957 1.60772 23.0434 105 92 76 -0.217583 -0.881292 -0.419503
-6.90514 -0.440845 9.89352 103 91 77 -0.0125741 -0.992715 -0.119826
5.36336 1.20706 22.2468 88 68 44 -0.328543 -0.860351 -0.389686
-2.44197 1.11046 23.783 44 31 15 -0.0625291 -0.88975 -0.452145
17.376 0.758602 10.1861 61 47 36 -0.615837 -0.781594 -0.0992721
12.0281 0.510013 18.5534 149 150 142 -0.578818 -0.766888 -0.277223
11.8823 0.802107 3.52469 71 58 41 -0.168012 -0.983058 0.0732722
1.19593 0.351221 29.2019 53 44 37 -0.0806635 -0.820465 -0.565978
-13.1213 -0.412636 9.10936 81 77 65 0.018487 -0.994832 -0.0998325
-15.171 -0.298635 9.97504 63 59 50 -0.0351499 -0.991541 -0.124941
1.40697 1.35248 19.686 113 94 77 -0.247902 -0.904905 -0.345964
17.4879 -0.20637 2.07389 72 68 57 -0.702092 -0.708186 0.0744242
15.6502 0.879746 11.952 100 86 73 -0.503222 -0.851215 -0.148997
-2.96618 -1.05732 12.326 37 20 10 0.0226541 -0.980801 -0.193691
0.5349 1.41322 22.3241 52 42 33 -0.167561 -0.897941 -0.40697
7.91363 -0.467034 27.4945 85 78 62 -0.476655 -0.745978 -0.4651
0.489879 0.270831 17.821 117 112 106 -0.115412 -0.937803 -0.327422
1.44446 1.44751 21.9566 97 87 78 -0.349568 -0.857306 -0.377928
-14.563 -0.268796 6.063 51 43 30 -0.0534895 -0.9985 -0.0116482
-6.25324 -1.41568 8.03822 73 68 62 -0.176571 -0.981796 -0.0699958
14.8629 0.931045 7.67728 68 56 42 -0.599677 -0.798936 -0.0457134
8.96191 -0.229825 8.97399 93 84 69 -0.396609 -0.913786 -0.0877305
-2.58225 -0.827899 5.85084 98 77 60 -0.110112 -0.993906 -0.00509867
-12.6497 -0.278557 9.98996 77 68 59 0.106362 -0.986087 -0.127748
-17.5299 1.72951 7.84357 27 23 14 0.0314892 -0.99769 -0.060193
17.3288 0.690365 12.5176 110 97 88 -0.596217 -0.788388 -0.151553
0.64633 1.33098 23.4867 88 83 77 0.00946613 -0.884569 -0.466313
2.27376 1.46215 22.663 65 51 38 -0.337681 -0.855815 -0.391857
-13.729 -0.296268 8.97464 94 88 72 -0.0496879 -0.99416 -0.095799
0.171406 1.24271 26.2992 50 34 21 -0.339863 -0.818373 -0.463421
18.2259 -0.855505 2.5283 35 27 16 -0.562976 -0.822191 0.0840251
-2.08074 1.10996 24.709 54 38 23 -0.29982 -0.844815 -0.443165
4.78116 1.51726 23.4717 63 47 34 -0.412275 -0.819982 -0.397064
-11.8891 -0.689297 9.99422 43 36 26 -0.0889306 -0.988131 -0.125255
5.36703 1.18385 23.2089 63 44 27 -0.330695 -0.851443 -0.407044
11.5053 0.713047 5.73575 61 49 35 -0.517965 -0.855386 -0.00529817
-0.90888 -1.03935 13.5568 42 25 9 0.0461151 -0.971882 -0.230908
14.5429 0.823441 12.1774 39 29 17 -0.554443 -0.818741 -0.149185
10.2102 -0.297256 1.77704 143 130 113 -0.0316316 -0.988453 0.148192
9.45402 0.382272 9.8152 74 61 42 -0.502354 -0.858719 -0.101203
11.0916 0.452408 11.2949 83 74 59 -0.436988 -0.88846 -0.140288
-11.8205 -0.720055 9.7709 50 46 37 -0.10493 -0.987304 -0.119251
-13.7204 -0.967086 8.27136 81 76 70 0.165661 -0.983539 -0.0721622
0.46793 -0.882775 12.0705 56 37 20 -0.297174 -0.93811 -0.177871
3.50061 1.31147 7.94463 56 38 24 -0.450331 -0.891033 -0.0571184
-9.18811 -0.631154 12.017 59 52 42 0.173046 -0.968042 -0.181524
-1.31585 0.414684 17.1103 75 62 46 -0.0809804 -0.945767 -0.314591
11.0386 0.524634 12.5609 63 54 45 -0.492984 -0.854289 -0.164793
17.1027 0.0690051 4.09541 18 8 0 -0.696731 -0.716589 0.0326528
3.69299 1.39867 25.5047 48 33 12 -0.0707493 -0.859998 -0.505368
9.02219 0.000466585 12.1156 106 92 79 -0.347766 -0.921971 -0.170375
10.3123 0.229421 11.6566 34 24 12 -0.52009 -0.841354 -0.14707
17.6658 0.696901 10.661 40 32 21 -0.623688 -0.774115 -0.108442
0.823331 0.472717 17.2733 51 41 29 -0.387691 -0.876372 -0.285776
-14.5369 -0.361137 10.7878 75 69 55 -0.0534871 -0.987501 -0.148262
-13.943 -0.335258 11.1777 61 56 50 0.292571 -0.9442 -0.151292
-6.54493 -0.991062 6.79518 94 82 70 -0.239336 -0.970345 -0.0338814
17.1533 0.797201 10.641 56 42 29 -0.590152 -0.799426 -0.112424
5.68636 -0.624547 12.9623 54 38 22 -0.515666 -0.83794 -0.178731
17.3039 1.0164 14.4825 58 44 31 -0.454898 -0.863607 -0.217372
-13.0245 -0.075743 11.4123 71 63 50 -0.0960354 -0.981765 -0.164055
-8.15021 8.98443 25.7235 45 38 32 -0.139527 -0.901575 -0.409506
-6.23088 -1.44515 7.3557 102 95 89 0.064649 -0.996962 -0.043443
-13.7006 -0.267463 10.9263 45 38 28 0.227965 -0.962863 -0.144663
-4.80246 -0.651089 7.32089 49 42 36 -0.117451 -0.991779 -0.0507847
-4.57808 -0.374278 10.7287 69 60 45 -0.168199 -0.975256 -0.143472
-6.83536 -0.598612 11.2621 114 102 88 0.16006 -0.974668 -0.156214
-0.238732 -0.976105 13.902 39 23 8 -0.0131548 -0.970849 -0.239331
17.5916 0.655491 11.3535 48 38 28 -0.543707 -0.82861 -0.133372
-5.5663 -0.944491 8.32918 76 68 57 -0.278298 -0.957493 -0.0758723
-8.79112 1.36841 16.8153 136 128 117 -0.198682 -0.935704 -0.291519
-14.6978 -0.272001 5.44112 55 45 35 -0.0495598 -0.99875 0.0065584
-5.30798 -0.577889 11.0799 108 90 76 0.0365893 -0.987134 -0.155654
-7.70431 -0.0103468 12.0112 39 32 24 0.223231 -0.958484 -0.177414
-7.53449 -0.924589 25.8836 80 73 63 -0.183953 -0.846655 -0.499336
17.158 -0.620425 2.87267 76 69 61 -0.223372 -0.968578 0.10937
3.7477 1.35222 6.88203 54 39 18 -0.45522 -0.889832 -0.0311921
8.4179 0.0542204 9.2454 85 78 70 -0.491825 -0.865843 -0.0917847
7.91189 0.445605 17.8362 36 23 14 -0.477969 -0.832501 -0.280157
-15.8268 -0.324512 8.58399 122 116 102 -0.016151 -0.996257 -0.0849196
-13.5253 -0.372754 10.0844 79 75 64 -0.0829588 -0.988301 -0.127984
7.13885 -0.348195 7.1363 119 102 84 -0.534743 -0.844197 -0.0371701
15.1168 0.616979 15.5712 57 44 27 -0.545737 -0.80633 -0.228041
8.70333 0.206571 11.3258 95 82 66 -0.306044 -0.938139 -0.161966
15.1656 0.685409 15.4291 52 40 24 -0.619823 -0.757347 -0.205537
-12.3373 -1.2045 6.9393 96 91 85 0.101794 -0.993936 -0.0415904
0.729683 1.43568 19.6064 49 35 22 0.0196705 -0.919711 -0.392104
16.6275 0.749387 1.38107 98 94 85 -0.371963 -0.917646 0.139889
-4.39981 -0.303137 11.9411 63 55 42 -0.28579 -0.942939 -0.17085
-7.10241 -0.616954 11.5406 41 38 33 -0.036616 -0.985191 -0.167507
5.38038 1.22032 22.7386 80 62 40 -0.273081 -0.869473 -0.411635
-2.67592 -1.00302 12.4245 61 45 32 -0.105931 -0.975383 -0.193408
9.37174 -0.306584 1.73473 119 107 85 -0.600575 -0.794301 0.0916262
-6.47312 -0.764536 11.7539 73 61 47 -0.0914668 -0.980346 -0.174801
1.10042 1.29862 26.536 43 25 11 -0.309883 -0.828628 -0.466206
15.5717 0.695735 1.75864 31 21 9 -0.671281 -0.736648 0.0820452
-15.3494 1.87073 12.7092 95 89 77 -0.0278734 -0.981331 -0.190297
-13.6397 -0.423762 10.1254 57 51 39 -0.0522367 -0.990301 -0.128743
-8.46367 8.55865 29.0431 62 56 44 -0.160044 -0.866938 -0.472022
-6.62288 -0.497634 10.0852 88 75 58 0.0327408 -0.99105 -0.129414
16.4294 0.76394 9.60308 56 48 35 -0.622685 -0.777787 -0.0854994
8.58993 0.271554 11.6131 109 94 75 -0.464996 -0.872518 -0.149971
8.63646 -0.129595 9.52159 38 30 19 -0.354606 -0.929386 -0.102453
5.82318 -0.664123 12.968 100 82 68 -0.221699 -0.953541 -0.203983
11.4861 0.650765 7.70795 97 85 73 -0.41057 -0.910435 -0.0504135
-13.9294 -0.207091 11.7104 108 100 87 0.197137 -0.965803 -0.168409
-1.46666 0.406169 17.0874 84 72 56 -0.111128 -0.945567 -0.305864
17.4818 0.892596 14.3164 98 86 74 -0.565452 -0.801406 -0.194966
3.39571 -0.767439 14.0436 52 33 18 -0.323885 -0.919323 -0.223483
-8.73881 11.9856 29.0927 58 51 43 -0.145558 -0.883106 -0.446023
11.8851 0.455925 12.3169 77 70 62 -0.235863 -0.949622 -0.206366
-11.8138 -0.594567 10.5772 83 76 68 0.170686 -0.9752 -0.140893
0.574887 1.22077 8.29144 41 21 10 -0.137155 -0.988301 -0.0666995
17.5225 0.708071 10.1126 100 90 78 -0.575432 -0.811082 -0.104999
2.56474 1.29065 8.78043 32 13 0 -0.431499 -0.898721 -0.078163
-13.2407 -0.182537 9.51301 88 77 59 -0.0908496 -0.98967 -0.110905
-4.42474 0.0367582 12.3105 74 61 45 -0.194783 -0.963809 -0.18202
2.90217 1.36176 26.062 45 32 15 -0.160236 -0.859144 -0.485999
8.02219 0.426036 11.8796 50 37 28 -0.334742 -0.927923 -0.16403
1.74687 -0.823739 12.1193 67 50 34 -0.0425809 -0.980711 -0.190772
-6.66797 -0.564358 9.36088 106 88 74 -0.1607 -0.981394 -0.105078
4.51293 1.48562 24.3903 60 43 23 -0.268333 -0.8574 -0.439162
-14.3764 -0.589198 10.0511 52 46 34 -0.0586901 -0.990029 -0.128052
5.2668 -0.655778 13.1297 65 46 29 -0.38941 -0.900201 -0.194931
-13.0746 -0.268045 9.34777 64 57 47 0.0511219 -0.992909 -0.10732
6.9934 0.455746 31.1108 75 67 54 -0.367908 -0.757236 -0.539664
10.0005 0.170926 11.6278 92 74 60 -0.5602 -0.816763 -0.138111
3.52793 1.41399 25.3943 114 99 80 -0.353748 -0.823219 -0.444042
5.67634 -0.618649 12.474 62 44 30 -0.0312877 -0.979146 -0.200734
2.04513 1.34609 26.3605 52 35 17 -0.375233 -0.80656 -0.456794
5.2838 1.23187 21.8406 86 64 40 -0.275191 -0.874475 -0.399453
-8.81821 13.7521 29.0358 65 58 48 -0.140125 -0.890685 -0.432488
3.80896 -0.812597 12.3592 72 53 39 -0.124178 -0.973155 -0.193775
17.4507 0.689883 11.661 41 28 19 -0.482775 -0.863353 -0.146801
4.88158 0.901153 6.03974 86 65 46 -0.481392 -0.87644 -0.0107226
-5.44635 -0.60347 11.1272 143 130 114 0.17938 -0.969964 -0.164297
2.57926 -0.815112 12.3236 61 42 28 -0.0879529 -0.977146 -0.193521
16.6371 0.0854186 4.09558 19 10 3 -0.691525 -0.721605 0.0328622
-13.5133 -0.28244 9.4848 84 71 52 -0.00675743 -0.993965 -0.109492
1.12258 1.42814 19.8931 47 39 28 -0.129261 -0.918468 -0.373776
8.57816 0.161516 11.1691 115 103 87 -0.549064 -0.82566 -0.129671
-12.28 -1.09888 7.63557 86 82 73 -0.0933155 -0.993902 -0.0587508
-13.2233 -0.268965 9.22762 77 71 57 0.123362 -0.986734 -0.105534
-8.80157 9.18904 26.5432 96 92 83 -0.115418 -0.8997 -0.420973
-1.91955 1.14369 21.6194 57 43 30 -0.167677 -0.903339 -0.394795
8.01691 0.855209 13.0322 98 88 76 -0.450549 -0.875123 -0.176535
-4.88087 -0.800559 8.01584 46 37 28 -0.266943 -0.961354 -0.0673811
0.514542 1.23773 7.76706 35 16 1 -0.13096 -0.989797 -0.0561392
8.35396 0.282634 11.9579 56 40 27 -0.553505 -0.819768 -0.147014
15.1463 0.993593 5.78256 80 67 51 -0.638917 -0.769266 -0.00393885
-5.83448 -0.52189 10.4377 83 70 53 0.0267245 -0.989797 -0.139958
17.2253 0.773485 11.6554 34 22 10 -0.441224 -0.885077 -0.148192
7.86072 0.30598 12.0682 27 14 5 -0.322956 -0.930385 -0.173448
-8.36466 7.24138 29.0989 58 54 42 -0.165704 -0.859327 -0.483839
4.84595 1.50248 22.5039 76 59 39 -0.293974 -0.865766 -0.405003
8.97412 -0.120817 9.32973 59 46 30 -0.592851 -0.800783 -0.08529
15.9746 0.212148 8.05763 38 28 18 -0.582756 -0.810676 -0.0565683
9.26387 0.231737 30.2428 87 75 61 -0.489413 -0.716678 -0.496838
7.67922 0.722672 29.4903 57 49 36 -0.35919 -0.774882 -0.520135
-7.31708 -0.407272 10.8881 83 73 64 0.150887 -0.97723 -0.149178
-6.97665 -0.421966 10.1898 70 61 46 -0.0285214 -0.990997 -0.130809
6.64388 0.828582 22.9843 76 68 55 -0.360125 -0.835132 -0.41577
2.17474 1.27723 8.96336 39 21 9 -0.0609959 -0.993845 -0.0924724
-14.38 -0.513202 9.62232 108 100 89 0.32366 -0.939557 -0.111697
0.251314 1.23267 25.9896 94 81 65 -0.342565 -0.820463 -0.4577
12.3829 0.502071 12.2848 69 62 54 -0.600958 -0.785732 -0.146546
5.28055 1.17186 23.6766 66 51 30 -0.346672 -0.842224 -0.412889
-2.00492 1.16684 22.4433 32 23 14 -0.248639 -0.881408 -0.401619
11.9838 0.594037 26.8509 229 228 226 -0.338522 -0.804972 -0.487261
3.92847 1.51716 20.3008 20 4 0 -0.305826 -0.882386 -0.357582
-8.71448 1.47439 17.2807 26 17 12 -0.160763 -0.940787 -0.298455
-0.127558 1.26782 23.6481 23 10 1 -0.104201 -0.88435 -0.455046
-8.09287 6.26563 28.1749 35 27 25 -0.175475 -0.861408 -0.47664
2.79768 1.4013 22.7344 14 2 0 -0.348366 -0.851506 -0.391892
2.67969 1.375 22.2195 20 10 1 -0.308992 -0.86603 -0.393086
1.04291 1.28558 21.222 14 0 0 0.0995555 -0.889376 -0.446206
-0.737045 1.24133 19.5034 39 26 18 0.0327983 -0.929599 -0.367111
-1.50813 1.21941 20.1375 40 28 16 -0.0115789 -0.926002 -0.377342
-1.91115 1.16425 20.586 39 25 14 -0.315102 -0.877947 -0.360443
-0.302468 1.24677 23.2865 20 8 0 -0.210449 -0.878479 -0.428935
0.106162 1.26429 23.2033 108 94 83 0.0888397 -0.884974 -0.457088
0.319101 1.26776 21.4964 21 6 0 -0.110769 -0.905687 -0.409219
3.18077 1.42827 19.6265 23 5 0 -0.313123 -0.888349 -0.335842
1.32443 1.36315 24.3567 33 21 9 -0.313673 -0.847681 -0.42784
1.3219 1.31527 19.1222 30 10 0 -0.33608 -0.885218 -0.321619
4.76729 1.48264 21.9311 43 26 10 -0.295702 -0.87046 -0.393523
0.901477 1.34641 24.3559 27 13 2 -0.274719 -0.860327 -0.42938
4.10055 1.52071 20.3253 32 19 3 -0.242908 -0.899785 -0.362469
-0.00937542 1.2363 21.7463 21 11 2 -0.109221 -0.907057 -0.406593
-1.20471 1.21471 20.1038 31 20 14 -0.331297 -0.877012 -0.347983
1.15752 1.31307 18.9503 27 9 0 -0.325638 -0.889612 -0.320235
2.59427 1.43181 23.615 49 35 24 0.0882689 -0.881833 -0.463228
1.62409 0.517434 28.5375 28 19 12 -0.209606 -0.81808 -0.535547
-0.384142 1.25804 22.7185 104 92 80 0.00698066 -0.899306 -0.437263
-0.511309 1.22892 19.5297 18 5 0 0.0431278 -0.925331 -0.376699
-2.46717 1.14652 23.5012 25 10 3 -0.294934 -0.857797 -0.420948
1.44709 0.48179 28.9197 30 15 8 -0.0570123 -0.822523 -0.565868
4.51312 1.62163 22.1888 111 89 76 -0.218686 -0.888949 -0.402424
1.53392 1.3075 23.8748 96 82 71 -0.040687 -0.88964 -0.454847
0.436952 1.27424 19.2207 35 21 10 -0.00991064 -0.934046 -0.357016
0.584753 0.457602 28.8838 34 23 17 0.0704227 -0.814162 -0.576352
2.6546 1.52706 19.5895 30 15 8 -0.221051 -0.911343 -0.347262
-2.29729 1.15705 21.511 36 20 7 -0.304217 -0.873213 -0.380725
4.28059 1.59635 21.3329 112 96 83 -0.305928 -0.876729 -0.371154
0.372892 1.28274 24.0688 94 76 64 0.225609 -0.846563 -0.482112
2.04858 1.35458 23.5726 102 86 73 -0.0191996 -0.890303 -0.454964
-1.5417 1.32125 20.4696 28 20 7 -0.104947 -0.920319 -0.376828
2.67704 1.43916 23.467 29 15 2 0.0461532 -0.880591 -0.471625
-2.13149 1.21239 23.5898 97 84 76 0.241678 -0.852238 -0.463985
0.90508 1.43516 19.1818 29 12 2 -0.0821524 -0.931997 -0.353035
1.95864 1.44636 21.9737 101 85 70 0.0430963 -0.90072 -0.432257
1.71827 0.521449 28.7377 73 64 57 -0.107124 -0.829279 -0.548471
2.42302 1.40667 23.9062 28 18 8 -0.136115 -0.884417 -0.446407
3.44239 1.56794 20.095 31 19 7 -0.0276477 -0.923282 -0.383126
6.9669 0.845385 20.1714 34 21 12 -0.0768984 -0.901007 -0.426934
0.570801 0.457648 28.2676 39 30 23 -0.18817 -0.823919 -0.534555
0.45591 1.30183 19.5328 79 63 48 -0.316758 -0.888168 -0.332899
2.94401 1.41994 19.9799 73 55 45 -0.178609 -0.911124 -0.371418
3.44183 0.710399 29.9605 37 28 19 0.0231759 -0.798316 -0.601793
5.34989 1.24004 22.3392 45 26 9 -0.379376 -0.841454 -0.384744
6.96942 0.897685 30.1362 38 30 19 -0.213467 -0.790186 -0.57449
2.17562 1.38956 19.56 97 79 65 0.406389 -0.828164 -0.385996
-0.0874503 1.23202 21.9673 99 80 65 0.210348 -0.875443 -0.435148
9.80799 -0.258377 25.9674 36 25 21 -0.522081 -0.737533 -0.428341
0.488194 0.449117 28.506 45 36 27 -0.199396 -0.825073 -0.528674
1.17926 0.457254 28.933 75 64 58 -0.0305059 -0.82273 -0.567613
4.71252 1.58297 23.0307 95 78 68 -0.435137 -0.814152 -0.384463
2.09201 1.3646 19.8478 116 102 89 0.0543416 -0.922847 -0.381313
-2.09624 0.166076 14.3134 36 23 15 -0.28178 -0.932567 -0.225654
-5.58005 -0.770336 12.1878 54 42 30 -0.0513175 -0.981058 -0.186792
4.4715 1.60429 21.6059 27 13 10 0.00225078 -0.89068 -0.454626
-1.37738 1.13242 25.1509 86 79 73 0.0103227 -0.873131 -0.487377
1.67397 0.947333 31.7962 35 31 22 -0.0169795 -0.789736 -0.613211
3.01888 0.607873 27.6595 69 58 52 -0.0690777 -0.836006 -0.544354
-4.77047 -0.399303 10.1822 68 58 48 -0.074916 -0.989019 -0.127395
2.48049 1.37566 19.2129 34 15 1 -0.176668 -0.921997 -0.344544
9.5507 -0.474925 27.594 33 26 20 -0.472253 -0.748991 -0.464747
0.740381 0.424276 28.9897 55 44 38 -0.2921 -0.803544 -0.518647
1.87516 1.32895 23.7788 35 22 14 0.125386 -0.866324 -0.483489
-6.88637 -0.683308 11.7082 69 64 60 -0.100474 -0.979485 -0.174683
-0.899505 1.20708 20.2954 32 19 10 -0.0836519 -0.919745 -0.3835
-0.819348 1.21094 20.4597 99 86 77 -0.104585 -0.92074 -0.375898
-3.98082 0.186498 12.8933 58 48 38 -0.0508837 -0.978086 -0.201887
11.2779 0.618306 10.0274 43 30 24 -0.389329 -0.914213 -0.112419
-5.43322 -0.591655 11.4011 75 65 55 0.0263108 -0.985991 -0.164713
-3.47655 -0.432948 12.3858 87 78 73 -0.295072 -0.938117 -0.181297
0.830113 0.524998 18.0084 65 56 51 -0.28455 -0.905591 -0.314542
-9.02306 0.742865 16.5027 59 52 46 -0.196114 -0.937186 -0.288482
-2.24832 1.12476 24.4109 55 38 28 -0.297031 -0.848561 -0.437854
-6.14603 -0.506983 9.82856 107 93 80 -0.0781984 -0.989312 -0.123069
9.65182 -0.487733 26.0099 102 93 88 -0.320552 -0.809808 -0.491384
-5.28926 -0.560225 11.1216 72 59 50 -0.266093 -0.952059 -0.150923
-6.57104 -0.533323 9.7529 87 71 58 0.125315 -0.985466 -0.114685
1.35751 0.49558 28.5535 93 82 76 -0.111632 -0.827502 -0.550253
4.41653 1.59399 23.9073 88 74 65 -0.208177 -0.868761 -0.449351
-5.82383 -0.888307 9.29951 50 41 34 -0.044868 -0.99362 -0.103471
13.8193 0.753133 12.4858 36 29 21 -0.155398 -0.966923 -0.202267
-6.3586 -0.745949 11.7307 100 91 76 0.0400264 -0.983793 -0.174781
0.590327 0.94023 30.5034 29 22 16 -0.323656 -0.781829 -0.532907
1.88736 1.3374 24.0319 98 81 71 -0.0600678 -0.8855 -0.460741
-4.81171 -0.388997 11.8839 95 86 77 0.101435 -0.976697 -0.18914
-3.91413 -0.203465 12.2738 33 25 22 -0.296353 -0.938337 -0.178038
-4.59784 -0.336533 11.7259 74 60 57 -0.100688 -0.979377 -0.175165
-4.45807 -0.337942 11.1982 88 81 75 -0.271697 -0.950433 -0.151185
-13.6193 -0.167045 11.7017 46 39 31 0.224286 -0.960551 -0.164432
1.67981 0.42496 29.0309 79 70 63 -0.201092 -0.822982 -0.531284
-1.94827 1.2804 23.652 58 49 42 0.0805799 -0.884601 -0.459335
0.775478 1.46062 19.9316 23 11 0 -0.205089 -0.910727 -0.35849
9.37498 0.314011 29.9878 63 54 47 -0.351568 -0.764736 -0.539981
9.73651 -0.0490729 11.9363 18 8 0 -0.558057 -0.816707 -0.146839
-5.05453 0.256708 29.5677 72 62 52 0.208695 -0.788423 -0.57865
-10.1603 -0.648717 11.8476 22 17 14 0.0833779 -0.980605 -0.177374
-15.8998 -0.283928 8.81665 56 51 45 0.336049 -0.938371 -0.0808154
1.82651 1.50285 22.1345 53 48 45 -0.230192 -0.887477 -0.399245
0.0605653 0.88995 30.981 42 38 29 -0.322549 -0.77509 -0.543321
4.11642 1.45596 24.6439 80 67 58 -0.419267 -0.806234 -0.417375
10.3991 0.168408 18.1071 29 20 13 -0.589431 -0.760208 -0.27323
4.58031 0.00848605 33.0166 86 77 70 -0.0893586 -0.755917 -0.64854
-1.91742 -0.00707235 32.8226 37 27 18 -0.121912 -0.778784 -0.615331
-3.64138 -0.0578571 31.5819 42 33 24 -0.0845061 -0.795248 -0.600366
9.86302 -0.188778 12.4065 44 34 25 -0.570789 -0.806153 -0.15594
-1.35058 1.22417 21.1477 100 86 77 -0.265883 -0.88892 -0.372999
-1.30959 0.0404167 33.2126 30 21 12 -0.13467 -0.773598 -0.619201
-11.0145 -0.590364 11.5231 28 23 19 0.108179 -0.979928 -0.167445
15.9573 0.863698 10.2104 86 75 69 -0.255782 -0.957631 -0.132354
2.10807 1.38529 20.0108 81 67 56 -0.342392 -0.87601 -0.339668
-0.96289 0.0533529 33.5077 40 31 22 -0.297574 -0.749482 -0.591376
-13.1294 -0.505557 9.03684 65 62 57 0.00837218 -0.995242 -0.097078
-6.13757 -0.659718 11.4667 102 89 80 -0.244574 -0.956083 -0.16152
-6.03947 -0.52405 10.0565 90 76 63 -0.0352 -0.991402 -0.126028
-2.35138 1.22216 22.1431 41 28 20 -0.197474 -0.893012 -0.404393
-8.17048 4.74602 28.5164 88 83 79 -0.178167 -0.849872 -0.495957
-0.0771217 0.0937434 34.17 40 31 22 -0.159567 -0.760706 -0.629178
-4.83573 -0.143258 30.6724 37 28 19 -0.218049 -0.796815 -0.563508
0.515071 0.352777 17.9201 90 83 77 0.330395 -0.87763 -0.347281
-3.06566 -0.0138666 31.9492 37 28 19 -0.214061 -0.787587 -0.577827
7.64159 0.692532 29.4285 42 33 28 -0.464542 -0.738551 -0.488614
16.6952 0.794419 12.4262 83 74 67 -0.515263 -0.841891 -0.160388
9.615 0.246563 29.911 214 213 209 -0.452096 -0.739677 -0.498484
9.61713 0.377807 9.81415 121 107 94 -0.565285 -0.819242 -0.0964155
4.8159 1.50806 22.5216 47 29 17 -0.3219 -0.858644 -0.398888
17.5789 0.513283 8.95016 76 64 52 -0.671345 -0.737952 -0.0687149
7.91404 -0.386135 27.5695 52 43 36 -0.41168 -0.777134 -0.476006
-9.26235 9.40758 25.2249 83 75 72 -0.146664 -0.903345 -0.40306
-6.62429 -0.778942 11.9999 35 24 18 -0.020639 -0.983138 -0.181695
4.96953 1.32659 21.0163 63 42 21 -0.330842 -0.867915 -0.370495
13.7738 0.711617 13.5817 31 23 20 -0.546365 -0.817429 -0.182468
-13.9127 -0.0926893 13.31 88 75 67 -0.0300987 -0.976495 -0.213429
10.7878 0.543681 8.139 24 14 12 0.0907171 -0.993282 -0.0718384
1.56226 0.353899 29.142 28 19 14 -0.361491 -0.778194 -0.513555
-6.23719 -0.740568 11.7975 50 41 26 0.0353887 -0.983958 -0.174853
2.09674 0.0088616 15.5971 97 84 75 -0.422345 -0.872245 -0.246603
-6.90578 -0.436349 9.86201 70 59 53 -0.009787 -0.992705 -0.120171
-4.09227 0.27632 16.7347 59 47 35 -0.319977 -0.9027 -0.287658
11.9277 0.539754 17.8243 60 55 49 -0.569865 -0.77836 -0.263458
4.51293 1.21745 20.1237 104 83 64 -0.369652 -0.863772 -0.342426
2.97796 1.34295 7.86903 25 11 2 -0.0760058 -0.995338 -0.0593781
7.04532 0.24299 31.3955 54 44 35 -0.25259 -0.769033 -0.587185
6.42432 0.0920324 31.9164 85 78 72 -0.437013 -0.721909 -0.536533
3.01704 1.53673 20.2621 58 47 41 -0.32104 -0.879691 -0.350825
-5.78314 -0.678922 11.7184 63 49 36 0.116709 -0.976564 -0.180837
-6.49674 -0.776082 11.8919 100 87 78 0.301209 -0.93751 -0.174205
-2.76037 -0.114074 13.6842 80 71 64 -0.321084 -0.923087 -0.211698
7.01451 0.174778 31.5389 97 88 81 -0.229792 -0.779751 -0.582395
11.0498 0.44468 11.2371 39 27 15 -0.58428 -0.801697 -0.126093
2.08757 1.49895 22.577 65 58 52 -0.333829 -0.857915 -0.390565
8.46713 -0.0186104 12.4202 20 11 4 -0.412512 -0.894774 -0.170921
-4.19883 -0.0824796 31.147 42 33 24 -0.0720602 -0.800704 -0.594711
7.66583 0.789224 30.1414 53 43 34 -0.132916 -0.798156 -0.587606
-1.55827 0.0507568 33.0558 48 38 29 -0.287649 -0.756525 -0.587305
7.67286 0.610542 30.4232 40 33 23 -0.460945 -0.730155 -0.504385
5.01984 1.48753 23.2097 63 41 28 -0.0873543 -0.887031 -0.45337
0.0576604 0.348787 17.9359 74 65 58 -0.048579 -0.933693 -0.354764
-12.0396 -0.816345 8.58405 72 69 62 0.236542 -0.968502 -0.0777971
8.29211 0.15592 9.74988 31 26 20 -0.546477 -0.831837 -0.0970025
-6.20517 -1.11614 8.13177 66 61 58 -0.186322 -0.97986 -0.0718265
-4.58581 -0.368119 10.7754 36 25 19 -0.213909 -0.966616 -0.141051
-3.29811 0.00772135 31.809 43 34 25 -0.213361 -0.789774 -0.575095
-8.15282 5.14594 28.5575 42 34 31 -0.17715 -0.851831 -0.492953
-3.40509 -0.0534718 12.9529 105 95 85 -0.293201 -0.936177 -0.193922
-5.07112 -0.432717 9.42565 70 56 43 -0.217104 -0.970419 -0.105609
3.62804 1.53761 20.8197 64 55 46 -0.0845116 -0.911209 -0.403183
-11.8711 -0.547226 10.8765 89 82 74 -0.0323174 -0.988471 -0.147922
-2.49406 -0.00448394 32.3868 37 27 18 -0.109602 -0.784775 -0.610013
9.60253 0.0340162 11.0529 81 71 61 -0.373365 -0.91581 -0.147954
-13.7246 -0.177964 11.6929 55 51 42 -0.0227432 -0.985222 -0.169766
-8.17807 8.72917 27.1885 91 84 78 -0.167687 -0.882189 -0.440027
1.71124 1.06362 31.1289 58 51 43 -0.341757 -0.771215 -0.537056
16.1378 0.856259 12.2567 83 73 63 -0.637525 -0.75786 -0.138601
9.3581 -0.256462 9.48456 36 26 17 -0.461293 -0.881353 -0.102106
-2.399 -1.04914 12.6574 27 13 4 -0.142069 -0.96949 -0.199764
-2.17505 -0.0284492 32.6435 54 41 33 -0.277273 -0.762598 -0.584434
11.0104 0.51276 12.5083 42 35 27 -0.580667 -0.799466 -0.153884
-15.6847 2.54073 12.6056 60 55 49 -0.0181796 -0.982766 -0.18396
