ply
format ascii 1.0
comment alvar_tracker Pointcloud
comment filenames frame_0000.jpg frame_0001.jpg frame_0002.jpg frame_0003.jpg frame_0004.jpg frame_0005.jpg frame_0006.jpg frame_0007.jpg frame_0008.jpg frame_0009.jpg frame_0010.jpg frame_0011.jpg frame_0012.jpg frame_0013.jpg frame_0014.jpg frame_0015.jpg frame_0016.jpg frame_0017.jpg frame_0018.jpg frame_0019.jpg
element vertex 727
property float x
property float y
property float z
property uchar red
property uchar green
property uchar blue
property float nx
property float ny
property float nz
element vtt_fi_alvar_camera 0
property float fx
property float fy
property float lambda
property float px
property float py
property int width
property int height
element vtt_fi_alvar_keyframe 0
property float x
property float y
property float z
property float qw
property float qx
property float qy
property float qz
property int camera_index
property list int int vertex_index
property list int float projections
end_header
-7.2446 -0.026607 3.15634 143 171 193 0.468029 -0.567442 0.677465
-3.30707 5.23998 2.31177 83 105 116 0.345467 -0.724163 0.596859
-7.8954 1.76862 3.90127 104 130 129 0.616884 -0.482989 0.621431
9.05894 -1.25707 -0.476094 193 193 193 0.394034 -0.396367 0.829235
-9.47773 -6.99043 3.67831 32 78 75 0.66335 -0.335889 0.668689
-6.22976 1.66757 2.70015 161 155 155 0.559706 -0.556685 0.613866
-8.6685 -5.39006 3.66544 150 156 168 0.505142 -0.511818 0.694891
-9.18288 -7.11685 3.1801 79 122 94 0.658936 -0.409551 0.630929
11.0219 -4.29193 0.183049 219 224 246 0.0551669 -0.630738 0.774033
-9.85114 -5.18552 5.00384 56 65 62 0.533768 -0.518595 0.667945
-3.22408 1.43635 1.69918 148 162 111 0.0834018 -0.669986 0.737674
-7.49616 -3.44456 2.925 53 106 86 0.425124 -0.562559 0.709082
9.99381 -9.01758 -0.417852 212 210 221 0.0989017 -0.554592 0.826224
-8.41131 -3.01712 3.75891 76 130 130 0.487786 -0.551518 0.676678
-10.5117 -7.49663 4.08047 152 158 182 0.292259 -0.490977 0.820687
-12.495 7.06199 5.94392 121 108 102 0.4828 -0.713406 0.507893
-8.50552 -2.699 3.82174 82 106 116 0.670598 -0.46294 0.579641
-4.30425 -2.04533 1.99843 118 142 82 0.127225 -0.578604 0.805625
-9.94393 -6.25488 4.57693 80 89 106 0.603439 -0.502238 0.619369
-7.36951 -3.13688 2.85544 146 154 133 0.449039 -0.606684 0.655971
-4.49838 3.8699 2.24094 102 113 70 0.554534 -0.530668 0.641002
-13.3773 -8.29772 0.572731 186 172 171 0.623762 -0.403985 0.669117
-10.9216 -7.08403 4.92784 158 169 189 0.394891 -0.488737 0.777944
-8.84801 -1.35067 4.04123 71 80 95 0.568965 -0.55592 0.605997
0.833762 -3.39092 0.458599 49 79 45 0.280544 -0.621341 0.731595
-3.78973 5.10506 2.72092 58 96 99 0.340793 -0.720146 0.604359
3.79754 -1.06548 0.222453 144 165 109 0.442236 -0.489638 0.751453
-7.6096 1.41819 3.57633 78 98 109 0.447425 -0.670457 0.59186
10.0913 -6.28904 -0.310622 199 207 228 0.0939979 -0.52931 0.843205
-3.16619 5.27946 2.20931 114 136 157 0.589109 -0.473925 0.654481
-3.46426 5.58889 2.91451 63 116 110 0.366329 -0.722278 0.586615
10.508 -5.04036 -0.0568186 203 210 229 0.0831583 -0.553574 0.828638
10.2603 0.100054 -0.395612 149 155 171 0.12546 -0.579081 0.805559
-9.15344 2.20907 4.39186 58 78 67 0.365931 -0.720471 0.58908
-1.66941 7.07304 2.43904 41 97 96 0.310325 -0.701381 0.641688
-8.38413 -3.20035 3.74697 22 79 72 0.48832 -0.548798 0.678502
13.5183 -2.63329 -0.274794 246 242 241 0.0113509 -0.590839 0.80671
3.64533 -0.0935904 0.164198 132 151 132 0.119019 -0.600074 0.791041
6.32548 -2.78185 -0.28721 74 82 45 0.36049 -0.547012 0.755529
-7.62367 0.631413 3.46601 98 121 139 0.516258 -0.572985 0.636527
-5.39304 -1.85499 2.39677 111 124 55 0.279629 -0.614775 0.737468
8.90381 7.34009 -0.393378 88 96 75 0.278029 -0.675014 0.683415
10.5772 -2.73554 1.41304 156 159 174 0.340706 -0.53029 0.776345
-8.6273 -2.72506 3.91251 91 112 113 0.590882 -0.516675 0.619601
8.77804 5.25454 -0.452628 127 150 104 0.288547 -0.649063 0.703888
-9.11706 -4.96895 4.30975 123 136 155 0.556766 -0.568357 0.605791
2.86463 3.86661 0.572872 123 125 140 0.520759 -0.536683 0.663913
4.4107 -8.85497 -0.137648 146 143 134 0.284171 -0.491617 0.82314
-5.76883 -1.44234 2.48592 102 111 44 0.409002 -0.635012 0.655346
11.9641 -4.91445 -0.204562 231 250 254 -0.265411 -0.575888 0.773246
-8.52398 -3.45119 3.85475 38 78 44 0.76758 -0.26917 0.581695
-8.52606 -5.61323 3.43194 124 136 152 0.502222 -0.507102 0.700443
-5.68665 4.04777 3.33247 40 94 94 0.502583 -0.611792 0.610836
-9.43152 9.05888 6.42789 69 96 61 0.266304 -0.794207 0.546184
-7.55314 0.484738 3.41576 129 149 174 0.0955654 -0.691165 0.71635
-5.02567 4.07149 2.76149 173 178 197 0.38371 -0.707463 0.593517
4.56035 3.65124 0.125487 152 157 153 0.337499 -0.628739 0.700558
11.682 -8.61251 -0.308224 102 131 73 -0.242811 -0.432529 0.86831
4.61463 -8.8179 -0.0774328 232 233 238 0.228494 -0.47539 0.849585
-8.588 -2.26537 3.88016 126 158 171 0.489258 -0.620973 0.612388
4.92027 -6.32583 -0.0817199 225 226 244 0.467564 -0.416785 0.779534
13.628 0.493981 -0.610141 165 155 145 -0.101038 -0.688377 0.718282
8.99713 5.31548 -0.440707 154 167 147 0.0878778 -0.732699 0.674855
-8.60501 -5.24972 3.63968 104 117 133 0.5988 -0.433973 0.673132
-7.76055 -5.05769 2.87213 103 138 114 0.481923 -0.51601 0.708155
11.4482 -4.35051 0.129443 234 238 249 0.262366 -0.519318 0.81331
8.9801 6.49789 -0.424665 128 129 124 0.0985812 -0.75084 0.653085
11.5441 -8.78761 -0.338655 165 178 169 0.0611645 -0.485206 0.872258
1.40803 -7.87263 -0.090609 161 155 119 0.629121 -0.240823 0.739061
-5.81859 2.70071 2.71327 35 83 59 0.124874 -0.718831 0.683878
-8.43915 -5.52908 3.36935 151 159 182 0.515078 -0.396944 0.759691
10.3133 6.01525 -0.611158 161 160 103 0.299291 -0.632952 0.714001
-4.56498 -2.46463 2.03261 140 153 83 0.408326 -0.626914 0.663512
7.10295 8.88581 0.588413 61 84 68 0.420886 -0.599842 0.680474
-3.04414 4.55203 1.93205 143 147 156 -0.0376681 -0.720131 0.692815
-7.15926 2.66316 3.62226 96 112 138 0.433294 -0.635128 0.639428
-10.2505 -1.58861 4.75876 98 88 86 0.64901 -0.495054 0.577674
-11.0714 -7.8125 4.33641 81 86 82 0.483783 -0.457573 0.746043
5.79433 4.52567 -0.142416 83 98 55 0.293026 -0.670758 0.681337
-8.43946 -4.03073 3.75608 168 171 176 0.676338 -0.402692 0.616771
4.14414 -6.05835 -0.142453 104 116 80 0.231268 -0.522891 0.820426
5.89733 -5.78857 1.46458 194 195 213 0.10109 -0.620281 0.777838
7.68785 -4.06693 0.826625 135 147 171 0.310796 -0.511488 0.801115
11.0456 -0.912849 0.917301 195 201 217 0.336098 -0.522809 0.783396
-7.82324 1.97017 3.9474 33 85 81 0.200951 -0.647875 0.734763
-4.76126 -0.811274 2.17069 140 155 98 0.525807 -0.532835 0.663034
-2.90437 4.61907 1.91136 132 129 124 0.324152 -0.712561 0.622239
-4.06176 4.65151 2.40986 62 93 78 0.323952 -0.659334 0.678479
-4.28877 -2.40049 1.95152 140 156 93 0.345482 -0.570219 0.745313
3.6476 -0.29806 0.173831 111 134 128 0.496997 -0.397634 0.771285
-10.2565 -7.25685 4.11504 141 151 176 0.559684 -0.401692 0.724843
6.37405 3.26746 -0.311263 137 132 110 0.428305 -0.471826 0.770672
5.39817 3.55071 -0.162093 107 109 108 0.179476 -0.656974 0.732239
-2.24245 -0.352764 1.34079 118 143 111 0.165803 -0.64218 0.748408
13.6221 0.215193 -0.601338 235 232 241 0.319122 -0.52705 0.787642
-7.3922 0.758178 3.31178 19 81 76 0.429195 -0.65975 0.616864
2.07827 9.34601 2.35027 113 136 116 0.416414 -0.63401 0.651637
-2.62139 6.57139 2.8231 125 143 145 0.386777 -0.666627 0.637191
-4.50013 4.31722 2.47819 94 104 113 0.595757 -0.533799 0.60011
-10.2173 -7.51394 3.78577 148 162 188 0.62641 -0.44453 0.640315
-8.25289 -5.55871 3.14766 113 143 145 0.500101 -0.569913 0.651996
-6.85441 -1.93469 2.73784 152 163 97 0.523863 -0.534284 0.663406
3.38353 -6.8463 -0.104304 79 101 63 0.253462 -0.578139 0.775572
-2.64044 -3.93004 1.30897 160 160 136 0.529023 -0.480882 0.699205
-0.351084 6.49031 1.92293 105 111 65 0.270102 -0.74105 0.614727
10.4902 -3.05909 0.884963 168 166 177 0.0809423 -0.66301 0.744222
-10.0249 -6.00775 4.79532 79 87 108 0.648559 -0.426281 0.6306
-12.6423 -8.39435 3.65023 103 80 64 0.631673 -0.366418 0.683174
-8.45639 -5.1741 3.5032 125 136 154 0.634808 -0.462316 0.619098
5.42461 10.4401 1.88391 117 108 91 0.0049708 -0.783655 0.621177
-2.24575 6.86047 2.67741 118 137 154 0.224572 -0.766972 0.6011
-7.76509 -4.89906 2.90958 52 100 74 0.634302 -0.411636 0.654382
4.1211 -0.124361 0.0383869 136 141 144 0.339187 -0.572886 0.746159
7.44527 4.65277 -0.392872 98 111 85 0.424221 -0.578066 0.697048
-9.58522 -6.46366 4.10257 156 167 195 0.641505 -0.408252 0.649463
3.56915 3.71635 0.399806 127 133 149 0.20071 -0.714091 0.670664
-9.07836 4.96565 4.9466 74 110 96 0.449375 -0.687113 0.57091
8.52336 5.58182 -0.428303 86 101 104 0.175751 -0.716585 0.674994
-7.83043 -4.02451 3.11039 105 107 86 0.239048 -0.631738 0.737403
1.30767 -2.72034 0.40616 83 83 45 0.245227 -0.573079 0.781949
-7.31048 2.14815 3.62427 118 134 160 0.622214 -0.524231 0.581405
4.42 -1.29827 0.0606523 137 152 95 0.234821 -0.654592 0.718587
-9.97342 -7.56345 3.50638 118 150 139 0.488123 -0.374781 0.78821
-9.50944 4.05898 5.0658 78 113 93 0.623841 -0.569856 0.53487
9.13798 -1.97502 -0.43887 122 125 118 0.108538 -0.660045 0.743344
-7.7138 -3.99569 3.01267 58 87 57 0.618211 -0.461413 0.636328
-0.978114 -4.96022 0.621242 90 83 55 0.339866 -0.530759 0.776393
-6.91959 -4.42835 2.58433 134 142 85 0.512805 -0.391906 0.763833
-3.14959 1.27328 1.66743 135 148 104 0.343278 -0.673889 0.654243
-0.128423 1.18362 0.886929 105 96 79 0.0107868 -0.65956 0.751575
-7.26178 1.10448 3.23664 85 99 99 0.441511 -0.611706 0.656417
-8.86991 -6.32054 3.46078 122 146 133 0.678045 -0.326083 0.65873
-8.73999 -1.68955 3.99012 34 84 91 0.470568 -0.627167 0.620668
-7.82727 10.4435 4.83274 123 119 84 0.406571 -0.722565 0.559106
6.23355 5.40595 0.00634095 23 88 68 -0.00305268 -0.726363 0.687305
-6.69448 -1.94148 2.6912 122 131 68 0.545275 -0.49333 0.677717
11.5081 -8.46754 -0.297052 169 187 173 0.0618685 -0.491646 0.868594
-8.59272 -1.8477 3.88058 100 127 146 0.623217 -0.496521 0.604208
-2.09001 -2.69172 1.19867 148 149 143 0.339783 -0.625604 0.702259
13.93 8.62475 -0.723041 178 171 143 0.142224 -0.685158 0.714374
-8.77191 -1.49598 3.99872 94 123 131 0.486409 -0.573731 0.658969
-8.3248 -5.69274 3.16467 119 155 153 0.708595 -0.300124 0.638607
-8.86217 -6.55032 3.29562 52 114 93 0.61906 -0.454936 0.640155
11.8314 -8.88517 -0.359206 155 169 144 0.032936 -0.496966 0.867145
2.37773 4.30191 0.758179 127 130 137 0.500645 -0.47838 0.721462
-11.9866 -8.11849 5.68243 153 151 103 0.544936 -0.432712 0.718196
-9.11343 -7.24911 2.92391 27 87 75 0.404228 -0.475532 0.781325
-5.43752 -2.24152 2.3574 85 96 28 0.144136 -0.622064 0.769585
10.7425 -2.98998 0.910177 185 189 201 0.264328 -0.576274 0.77333
-7.91404 0.64035 3.68369 90 102 128 0.457721 -0.605612 0.650942
-7.00996 -5.68712 2.45494 73 97 71 0.377601 -0.542002 0.750767
-8.9029 4.21965 4.68978 27 72 52 0.275208 -0.720593 0.636401
-4.33035 5.12343 3.1858 174 177 186 0.352077 -0.721636 0.596057
-9.01737 6.12092 5.25146 54 77 49 0.215409 -0.739252 0.638048
13.7736 5.03094 -0.697537 125 125 91 -0.152164 -0.657286 0.73812
-9.77753 -5.53863 4.78988 127 126 140 0.74387 -0.25751 0.616722
-9.92032 -6.93535 4.08738 167 175 194 0.693095 -0.387606 0.607768
6.96069 9.07049 0.707402 38 75 57 0.1231 -0.772457 0.623023
8.31328 5.21665 -0.459966 69 78 47 -0.335824 -0.648885 0.682767
-9.67828 -6.5376 4.15114 108 118 145 0.643485 -0.406715 0.648468
-7.39755 -1.74459 3.00492 158 166 168 0.442236 -0.626331 0.641978
3.25318 -6.88726 -0.111134 120 143 89 -0.256796 -0.469841 0.844574
-5.6019 -6.79487 1.67298 144 140 95 0.443948 -0.488344 0.751286
5.58274 10.4774 1.78803 169 157 141 0.213665 -0.709169 0.671883
7.86625 -7.1269 0.3004 182 188 202 0.201043 -0.538022 0.818605
-9.02747 -7.31652 2.81755 55 123 108 0.409862 -0.58114 0.703058
3.82793 -6.34858 -0.122045 120 128 91 0.35726 -0.494818 0.792162
-0.179115 8.71705 2.39605 87 86 91 -0.164594 -0.72221 0.671805
-9.32067 -3.70251 4.67379 114 112 89 0.25716 -0.653848 0.711584
5.31957 3.31249 -0.162901 159 163 164 0.47666 -0.527093 0.70354
-5.30694 -1.10123 2.39645 113 137 61 0.41462 -0.585237 0.696841
-4.08327 4.74131 2.53676 104 137 142 -0.149079 -0.707899 0.690402
7.20444 4.65372 -0.363179 127 139 127 0.206317 -0.707014 0.676435
-3.5568 5.39324 2.84905 125 145 169 0.43562 -0.668274 0.60303
-0.744331 6.41573 1.98622 52 109 76 0.294611 -0.694485 0.656425
-8.98171 -5.97254 3.77446 104 107 126 0.563368 -0.427735 0.706866
5.66073 3.48679 -0.230314 132 132 124 0.336697 -0.660896 0.67071
-12.439 -7.84227 6.01844 118 135 119 0.0134697 -0.514361 0.857468
-3.11713 -2.92988 1.53296 149 149 151 0.542477 -0.475847 0.692307
-7.65222 -3.1186 3.06106 106 115 144 0.455115 -0.607021 0.651457
-7.42416 -4.89297 2.70174 84 81 46 0.716002 -0.316981 0.621984
13.7468 4.79917 -0.675076 164 164 130 -0.097067 -0.732069 0.67428
-3.67668 5.26826 2.81995 135 150 173 0.187789 -0.717357 0.67092
-5.12675 -1.74382 2.37148 141 157 95 0.66981 -0.388147 0.633006
-9.59955 3.54991 4.95861 65 91 64 0.456922 -0.69041 0.560854
11.9474 -8.84683 -0.352782 171 187 140 -0.170218 -0.516973 0.838907
2.84524 -0.0524873 0.268374 129 133 144 -0.076429 -0.635258 0.768509
-9.5859 8.84697 6.4464 48 78 52 0.641456 -0.582825 0.498847
-5.36303 -3.92431 2.15544 134 134 84 0.179282 -0.598252 0.780994
-11.2171 -7.35888 4.91794 71 95 99 0.56772 -0.472813 0.6739
-7.94308 -4.33297 3.19135 94 101 117 0.483369 -0.52921 0.697346
-9.48131 9.48408 6.4157 151 148 107 0.444438 -0.716107 0.538206
-1.35146 6.24123 2.07831 21 81 73 0.436126 -0.628426 0.644109
6.66468 4.33308 -0.32521 121 124 117 0.237681 -0.675785 0.697726
-10.4053 -6.11169 5.07957 114 119 138 0.631261 -0.476338 0.612055
-9.77299 -6.24236 4.41704 154 166 188 0.762367 -0.285623 0.580702
-4.03664 4.86657 2.65095 77 117 117 0.363294 -0.668998 0.648428
8.96431 -7.37658 -0.179153 179 178 194 0.107018 -0.577469 0.809368
-9.97314 -5.64413 4.93616 126 138 152 0.766227 -0.298425 0.569068
13.1136 -4.1839 -0.351344 121 135 99 0.329718 -0.410433 0.850194
-8.01727 4.63269 4.17413 150 136 135 0.439145 -0.657895 0.611822
-9.27328 -7.96875 2.73278 37 54 35 0.521858 -0.457231 0.720142
4.86503 4.40061 0.128203 154 157 130 0.432906 -0.580222 0.68988
-2.46259 -0.0549266 1.39141 125 142 106 0.107539 -0.675609 0.729375
1.04554 -3.53575 0.379036 165 151 106 0.491752 -0.469016 0.733624
3.51004 -6.63272 -0.110675 127 145 95 -0.184959 -0.55646 0.810026
-9.77105 3.9187 5.11365 90 95 73 0.116516 -0.710508 0.693976
-8.68284 -7.36245 2.56634 89 126 92 0.669157 -0.380704 0.638195
1.3229 -1.47112 0.527411 104 93 65 0.524623 -0.50062 0.688585
-5.98709 2.37485 2.75147 50 96 83 0.0337085 -0.623646 0.78098
-2.44462 -0.260139 1.39361 113 139 114 0.584471 -0.4448 0.678636
7.24244 -7.65809 0.307982 161 169 182 0.218665 -0.576347 0.787407
3.61964 -8.52199 -0.121772 104 113 56 0.250151 -0.477745 0.842131
-10.0868 -6.72833 4.42381 150 155 177 0.767515 -0.274474 0.579297
-9.48701 6.27613 5.51638 46 77 62 0.356596 -0.735428 0.576182
-2.54026 6.79242 2.86671 158 170 184 0.279405 -0.73881 0.613264
9.20323 7.14095 -0.43641 137 150 156 0.136258 -0.721833 0.678522
4.00592 -7.87541 0.0760186 232 230 251 0.267081 -0.557224 0.786237
4.33524 -8.64781 -0.00987208 158 168 134 0.234781 -0.478495 0.84612
-9.36569 2.51285 4.58037 143 143 117 0.250182 -0.719382 0.647996
-3.45318 1.22308 1.72882 115 136 103 0.366092 -0.676054 0.639475
-8.6858 -4.15378 4.01118 95 114 112 0.447675 -0.545103 0.708837
-5.55519 3.21483 2.74517 148 160 182 0.112729 -0.688044 0.71686
12.9368 9.94578 -0.65811 129 131 92 0.00817451 -0.772259 0.635255
7.32805 4.51712 -0.404187 106 113 79 0.122464 -0.722912 0.680001
-0.848567 -2.55894 0.841963 150 130 97 0.498911 -0.489356 0.715275
-2.74801 6.47892 2.86801 104 139 133 0.18041 -0.747795 0.638948
0.734586 -3.51654 0.45727 101 115 80 0.393522 -0.550146 0.736532
-13.0244 -2.30361 5.50192 122 109 100 0.567127 -0.546786 0.615948
-9.6799 -6.94195 3.86665 117 123 145 0.702555 -0.334602 0.628059
1.16763 -1.46629 0.576055 102 130 105 0.515463 -0.473772 0.714029
-10.0172 -7.67864 3.40746 61 111 86 0.455913 -0.511446 0.7284
-9.98798 -8.6154 1.74974 96 66 55 0.617655 -0.355764 0.70138
-8.89033 2.9097 4.2691 111 123 119 0.687124 -0.478447 0.546762
-6.2168 -7.48262 1.71162 87 82 52 0.636963 -0.365069 0.678972
10.7881 2.756 -0.496382 132 162 98 0.068289 -0.659177 0.748881
5.7842 5.53368 0.180994 78 104 79 0.356364 -0.632209 0.68798
-8.68928 -5.18481 3.75033 163 171 190 0.718068 -0.354017 0.599208
-2.82242 -2.75216 1.44068 104 110 106 0.552579 -0.420842 0.719409
-5.57634 -1.65368 2.4472 136 153 85 0.124038 -0.649823 0.749897
-8.38216 -2.13809 3.71509 122 133 161 0.481849 -0.564428 0.670256
-7.42011 -5.47866 2.6052 32 79 61 0.619675 -0.434995 0.653285
7.1646 10.3136 0.960894 110 111 77 0.129205 -0.791274 0.597655
9.14027 -1.04734 -0.476352 213 216 221 0.391588 -0.400914 0.828207
7.09637 -6.17775 0.237231 191 189 202 0.150139 -0.597688 0.787545
9.43511 5.73945 -0.508945 109 112 65 0.090425 -0.74387 0.662179
-10.2631 -6.00412 5.01445 123 129 151 0.636173 -0.463002 0.617181
-0.856499 -2.37323 0.848737 115 113 72 -0.00085915 -0.628041 0.778179
4.00113 4.78437 0.465984 148 140 117 0.340087 -0.676372 0.653347
-6.32953 -2.03696 2.59124 123 133 70 0.479018 -0.576492 0.661966
-8.7459 -4.02915 4.0684 112 126 111 0.320645 -0.649219 0.689711
8.30347 -5.24896 0.448723 183 182 198 -0.30725 -0.445564 0.840874
6.65826 -7.0161 0.444518 232 234 249 -0.199176 -0.550544 0.810698
-3.9683 -1.00707 1.88078 146 155 92 0.328501 -0.606901 0.723712
8.33914 -7.32712 0.0121835 182 188 204 -0.0113889 -0.547596 0.836665
-5.88151 10.6252 4.31415 134 120 94 0.354574 -0.769523 0.531141
-2.68215 -3.48564 1.44629 81 86 79 0.374728 -0.617651 0.691438
-5.98062 -2.11667 2.47004 133 155 82 0.43234 -0.567728 0.700548
10.8146 2.38375 -0.512174 79 105 102 0.343786 -0.472983 0.811233
11.6755 -4.00543 0.340122 213 219 233 0.0552256 -0.575708 0.815788
-1.31354 9.1527 2.48798 86 94 107 0.295542 -0.731963 0.61391
-13.0132 3.37614 5.54534 114 102 88 0.580318 -0.570519 0.581153
5.51163 3.21935 -0.22371 137 138 140 -0.292978 -0.638621 0.711567
7.54 -5.85079 0.344623 179 178 196 0.467355 -0.35575 0.809333
2.95773 2.08297 0.213569 133 119 108 0.346247 -0.582277 0.735572
-6.27529 2.15092 2.87358 126 158 169 0.668895 -0.459852 0.584051
-5.90918 -0.291314 2.4519 110 115 83 0.591679 -0.45288 0.666945
0.633704 -1.32043 0.656356 57 93 55 0.484422 -0.457419 0.745723
-4.96628 -2.08931 2.25064 74 89 24 -0.0148779 -0.596694 0.802331
7.22032 -6.31777 0.274248 221 222 240 0.265825 -0.528582 0.806188
-8.66322 -3.30241 3.96792 59 91 50 0.732502 -0.346738 0.585844
-12.695 6.68829 5.77978 98 83 76 0.609367 -0.590139 0.529535
-3.65072 4.83588 2.25437 107 131 133 0.376444 -0.633215 0.676261
-9.28086 8.43655 6.02971 49 76 33 0.696344 -0.525326 0.489017
-8.99489 -2.39503 4.18917 84 103 58 0.525819 -0.4734 0.706687
-2.85825 -2.98417 1.46943 113 122 139 0.37312 -0.561457 0.738612
-3.68666 8.11609 3.3582 117 118 61 0.401714 -0.725482 0.558839
-6.09825 -1.24994 2.60865 125 129 79 0.697452 -0.389112 0.601791
3.89484 5.55788 0.669934 152 150 112 0.308663 -0.673881 0.671275
-2.12149 2.05256 1.43939 134 106 85 0.356474 -0.542703 0.760526
-2.79025 -3.92914 1.36202 101 104 83 -0.156239 -0.545182 0.82363
8.14328 -0.0121542 -0.451299 72 74 63 0.370969 -0.552359 0.746513
-8.17323 -6.45116 2.67781 25 87 64 0.718814 -0.244949 0.65062
-8.64539 -2.0138 3.92383 37 80 89 0.586608 -0.527543 0.614483
11.5705 1.49998 -0.537027 143 146 125 0.0383617 -0.69551 0.717492
-5.20689 4.91057 3.54716 146 139 146 0.125922 -0.728582 0.673285
0.641205 -1.51502 0.65699 75 78 47 -0.13484 -0.580566 0.80297
7.56849 -7.62922 0.194538 224 230 246 0.24552 -0.508946 0.825042
2.23922 10.603 2.82586 108 99 60 0.287092 -0.771512 0.567757
-7.03162 -8.33292 1.766 84 89 48 0.527556 -0.425476 0.735292
0.00078354 1.25626 0.85464 128 116 104 0.46427 -0.547861 0.695918
-9.63798 5.33432 5.31544 126 121 99 0.634792 -0.594852 0.493143
-8.90728 -0.073164 4.15428 129 131 144 0.485666 -0.609916 0.626204
-6.4344 1.42915 2.75667 142 145 136 0.432668 -0.54292 0.719747
-6.10243 4.1071 3.58218 33 87 71 0.661384 -0.473661 0.581565
1.55128 -7.2376 -0.100297 110 93 41 0.102265 -0.527891 0.843133
-9.15588 -6.69015 3.56188 107 148 142 0.481376 -0.447009 0.753963
-3.73831 4.63263 2.19761 63 91 105 0.355694 -0.715077 0.601786
-8.20134 -5.37025 3.17035 69 105 103 0.183065 -0.613373 0.768285
4.43881 3.76903 0.187413 166 165 173 0.531955 -0.491602 0.689457
-8.0372 10.2095 5.05138 112 108 73 0.393533 -0.760437 0.516592
-1.37367 10.7312 3.10382 105 99 51 0.0444216 -0.774244 0.631326
-8.72313 0.84328 4.29093 48 88 61 0.332894 -0.676724 0.656678
-6.73041 2.69503 3.29894 148 159 181 0.460909 -0.676049 0.574909
-5.0972 -5.1009 1.84315 81 76 44 0.567679 -0.411832 0.712836
-3.09297 5.56238 2.40635 22 87 83 0.424599 -0.669237 0.609785
4.92881 -8.23606 0.557031 254 254 255 0.304706 -0.530605 0.790956
-6.49301 -3.36126 2.54027 141 143 78 0.45161 -0.60785 0.653121
2.89044 -8.68075 -0.153581 165 159 133 0.266804 -0.472334 0.840069
8.00562 10.1215 0.272202 126 118 95 0.115298 -0.738804 0.663984
9.84553 -7.98352 0.257991 237 233 247 -0.363096 -0.431241 0.82595
-5.60244 3.80936 3.14774 107 126 140 0.55694 -0.570924 0.603211
7.63089 -2.28732 -0.35207 122 124 136 0.322843 -0.513592 0.794982
-6.16366 3.62878 3.35955 77 113 129 0.340756 -0.694091 0.634132
1.14525 -5.88454 -0.0419088 142 136 88 0.461693 -0.383988 0.79962
4.02461 -8.43518 -0.0286534 109 128 82 0.421115 -0.381553 0.822848
-10.8964 -8.32602 3.72111 100 93 65 0.169022 -0.547404 0.819622
-6.59111 -4.89221 2.4666 121 141 70 0.525496 -0.510106 0.680916
-5.38603 3.17441 2.61829 125 135 136 0.166445 -0.720197 0.673507
7.10056 9.16215 0.664192 59 98 77 0.0677123 -0.770601 0.633711
12.0142 2.36891 -0.596177 108 113 107 0.284204 -0.586073 0.75878
-3.31499 5.83996 2.94806 88 130 108 0.562414 -0.564574 0.604108
3.76871 -8.35256 -0.0551748 90 112 47 -0.223095 -0.440408 0.869638
13.2465 -3.09721 -0.46431 153 150 99 -0.217483 -0.607983 0.763583
-1.65376 -7.66255 0.385675 154 145 86 0.156366 -0.546434 0.822775
1.68652 -4.38349 -0.0237663 163 153 102 0.258329 -0.571869 0.778609
11.815 -5.08523 -0.267844 174 187 178 0.0520704 -0.551696 0.832418
-2.90576 5.47467 2.21595 96 123 144 0.223824 -0.72606 0.650185
-5.99872 -2.82084 2.45614 110 124 62 0.477203 -0.565944 0.672298
-7.45132 -5.83874 2.57131 66 80 55 0.47859 -0.502408 0.720096
9.68949 -7.91409 0.166011 190 188 201 0.0908691 -0.573629 0.814059
4.57979 -6.71837 -0.037891 229 230 250 0.274699 -0.448642 0.850447
9.14575 -6.70451 0.345477 199 203 215 0.345927 -0.474359 0.809517
-6.43008 -3.04208 2.5423 97 109 43 0.10892 -0.559801 0.821437
-1.50632 -7.35705 0.388326 156 148 86 0.569267 -0.372503 0.732923
-5.55887 -0.507973 2.35298 95 100 68 0.415709 -0.591823 0.690602
-6.23492 -5.76001 2.17911 132 138 94 0.45903 -0.571009 0.680617
-7.61736 -1.14245 3.17902 149 161 187 0.459762 -0.578761 0.673539
6.22408 3.71911 -0.281023 112 121 130 -0.227209 -0.643772 0.730708
-8.82388 0.0714292 4.14776 70 87 95 0.724197 -0.422216 0.545227
-5.89908 -2.27132 2.44531 140 155 86 0.472244 -0.574454 0.668572
-2.56865 -2.49076 1.34954 151 153 140 0.54669 -0.426124 0.720797
-8.16617 4.42933 4.20184 148 130 130 0.497968 -0.558188 0.663667
-3.36501 5.4947 2.70813 62 124 113 -0.0271839 -0.665473 0.745927
7.96098 5.05599 -0.411948 138 143 113 -0.0161962 -0.679215 0.73376
-6.32108 -6.03829 2.14274 83 82 62 0.522675 -0.523734 0.672691
2.60474 0.151255 0.287407 118 116 104 0.434356 -0.555624 0.708954
13.9009 8.38108 -0.710853 136 132 95 0.0364047 -0.687986 0.724811
0.182801 -1.7209 0.719126 119 113 65 0.488818 -0.530079 0.692874
-12.4506 6.60321 5.79548 106 92 89 0.652427 -0.534234 0.537525
-5.90104 -3.153 2.41634 108 109 52 0.439022 -0.61322 0.656674
-6.28396 -0.32679 2.58167 106 108 68 0.412391 -0.646898 0.641449
-6.75189 -3.88274 2.58391 87 103 58 0.44086 -0.597574 0.669737
3.15582 1.15432 0.162986 155 136 104 0.322205 -0.627299 0.709
-0.713755 -2.68236 0.812515 112 108 71 0.328304 -0.63223 0.701784
-2.11213 6.94338 2.64247 118 145 154 0.468213 -0.63552 0.613915
13.1447 7.55213 -0.678555 111 114 59 0.126879 -0.673451 0.728262
2.66562 4.85147 0.75131 162 150 112 0.390542 -0.579357 0.715418
-5.99009 2.56179 2.79075 72 126 113 0.454404 -0.585764 0.671116
-4.45296 -4.26264 1.77921 113 106 87 0.519863 -0.493491 0.697287
-4.91344 3.54191 2.41992 85 103 55 0.366939 -0.696378 0.616777
13.4047 9.98957 -0.666701 157 154 121 0.193465 -0.659738 0.726166
-5.15617 3.80525 2.75077 95 124 132 0.210342 -0.678883 0.703473
3.44066 -0.941831 0.27814 97 121 69 0.531999 -0.437153 0.725172
2.38262 9.44715 2.34473 57 102 81 0.210749 -0.778751 0.590873
3.62837 10.5113 2.51792 155 144 112 -0.257521 -0.727802 0.635599
5.48038 -8.11258 0.288408 214 217 236 0.442328 -0.360957 0.821009
-6.5686 -1.54372 2.75346 104 127 55 0.441356 -0.575298 0.688649
3.38838 -7.83584 -0.0801134 136 147 89 0.555976 -0.277803 0.7834
-9.32493 6.09321 5.3977 56 116 91 0.638797 -0.578551 0.507165
9.12218 5.9902 -0.421543 146 145 124 0.13563 -0.63369 0.761604
3.74942 -6.00746 -0.172614 104 103 47 0.493122 -0.433615 0.754194
-0.220873 -4.48443 0.454488 102 106 81 0.342298 -0.539838 0.76903
13.1599 10.0167 -0.657013 179 179 141 0.00397888 -0.772826 0.634605
11.6673 -9.17412 -0.458478 185 181 196 -0.0680105 -0.555726 0.828579
-7.52926 1.96365 3.72749 103 119 145 0.689542 -0.471018 0.550157
0.24117 -4.50879 0.333034 103 100 67 0.51042 -0.446646 0.734833
10.4798 2.79474 -0.547114 94 112 54 -0.21678 -0.66611 0.713655
-3.15097 4.4063 1.92629 138 149 145 0.158986 -0.746265 0.646384
1.44004 -1.01663 0.499891 117 115 76 0.533215 -0.460726 0.709516
-7.09871 4.78177 3.87896 80 73 67 0.403959 -0.709261 0.577725
-9.31518 -4.74122 4.62001 150 160 170 0.460196 -0.475696 0.749622
6.58269 4.09108 -0.324842 117 119 132 0.37507 -0.570457 0.730685
-13.8479 -8.18304 0.345268 183 172 178 0.580497 -0.473062 0.662748
-4.80501 2.70518 2.15199 126 120 72 0.384912 -0.635655 0.669168
3.9896 3.9004 0.351256 151 157 171 0.0287768 -0.667708 0.743867
-8.3614 -7.71889 2.35158 98 106 82 0.571177 -0.475989 0.668724
-12.3197 -6.16 5.87967 126 137 155 0.743508 -0.344182 0.573354
0.187971 -4.21081 0.398298 153 147 113 0.545875 -0.437462 0.714596
2.07514 9.59963 2.45393 136 124 82 0.338793 -0.729398 0.594304
-4.60184 2.24552 2.00014 145 137 116 0.538917 -0.543252 0.643775
-4.54841 -0.0238414 1.9753 135 129 95 0.376724 -0.654551 0.65547
-10.5899 2.90723 5.13348 188 151 125 0.493794 -0.679851 0.542189
11.5913 1.70335 -0.544229 146 149 142 0.254919 -0.54259 0.800383
-6.8676 2.12437 3.2519 144 158 187 0.691722 -0.449075 0.565554
-4.67499 2.40581 2.0417 126 115 87 0.383552 -0.631671 0.673706
9.8067 -6.05889 0.42731 133 144 162 0.149557 -0.479341 0.864792
-4.34028 -2.61213 1.94558 153 154 94 0.116893 -0.613621 0.7809
-1.78662 7.16855 2.53769 85 122 138 0.39424 -0.695038 0.601246
6.45356 8.54975 0.817763 97 88 73 0.336372 -0.632235 0.697949
13.4037 -3.15453 -0.544168 146 138 89 0.333631 -0.46492 0.820085
-1.29704 6.09651 2.00753 28 82 58 0.304538 -0.66338 0.683508
-1.65931 3.47073 1.51264 108 107 53 0.305145 -0.70303 0.642367
12.3732 6.84703 -0.660994 147 150 93 0.258394 -0.645271 0.718928
-11.2854 -6.40076 5.58462 141 139 98 0.760102 -0.295612 0.57867
9.9873 -4.23996 -0.198628 158 163 182 0.0941493 -0.564389 0.820122
6.59146 8.64325 0.772063 132 123 108 -0.0336502 -0.755162 0.654674
-7.63404 -1.85 3.14087 127 141 167 0.616305 -0.507826 0.601898
-9.72048 -7.54123 3.36209 22 80 55 0.493509 -0.385805 0.779489
-6.01964 -0.377241 2.5024 96 105 62 0.623198 -0.494373 0.605986
-5.74058 -5.29443 2.04347 93 102 39 0.441689 -0.515998 0.733932
11.2974 -2.40688 0.233344 206 213 229 -0.12514 -0.60865 0.783508
-1.8349 7.30251 2.62213 116 128 150 -0.0599755 -0.685418 0.725676
-9.40518 -4.67166 4.72153 90 119 123 0.754321 -0.308832 0.579329
-8.96621 5.61714 5.05865 51 93 73 0.4504 -0.71763 0.531176
-3.42997 6.15865 3.16709 134 129 123 0.348757 -0.6904 0.633811
-12.4731 -8.41245 3.95538 120 99 82 0.632439 -0.368662 0.681256
3.02369 1.08642 0.190171 124 109 76 0.438517 -0.521846 0.731696
-7.03691 -0.665017 2.8908 136 139 122 0.429075 -0.641127 0.636279
-1.81304 7.66212 2.64129 127 134 152 0.374593 -0.720784 0.583224
3.65111 -8.08606 -0.0420835 90 104 55 0.233781 -0.554919 0.798381
-6.61461 -3.42477 2.56598 132 143 74 0.500603 -0.553403 0.665689
2.96884 -5.93188 -0.183604 171 160 128 0.436146 -0.42646 0.792407
3.75646 -6.1895 -0.147692 126 133 79 -0.00333255 -0.500878 0.865512
-7.70029 -0.818633 3.25622 106 120 146 0.349274 -0.683923 0.640513
4.80508 10.5264 2.17773 169 159 134 0.205378 -0.753163 0.624952
6.17368 8.63908 0.982686 141 138 129 0.337632 -0.646722 0.683927
7.78969 5.62145 -0.377364 100 99 45 0.257724 -0.671045 0.695182
6.07408 -2.50421 -0.292127 124 135 79 -0.188814 -0.547838 0.814999
0.46454 -1.29526 0.676247 102 111 64 0.0237379 -0.647949 0.761313
-8.28459 -2.74914 3.63128 129 140 168 0.389458 -0.646898 0.655626
-8.48382 -8.5994 1.57734 115 89 76 0.626352 -0.412504 0.661456
-6.50252 -7.93049 1.70521 93 95 56 0.642892 -0.361795 0.675125
-8.41071 -0.679766 3.73894 156 170 197 0.368936 -0.531919 0.762199
-6.22234 -4.90956 2.29562 113 129 58 0.450139 -0.521912 0.724557
-1.71794 6.74206 2.28638 102 132 134 0.294965 -0.740881 0.6034
-4.80623 -3.35876 2.05556 135 131 86 0.496234 -0.495985 0.712566
-8.71869 -8.57837 1.44208 139 111 99 0.50506 -0.439765 0.742645
-8.37412 -4.47006 3.61467 110 118 137 0.0173954 -0.57087 0.820856
0.23643 -3.61832 0.490425 104 99 59 0.0848412 -0.601909 0.794045
9.67896 7.47896 -0.508082 98 99 42 0.26169 -0.689112 0.675754
2.78829 10.7386 2.74868 191 176 145 0.200295 -0.792934 0.575445
-4.8371 -2.99703 2.08112 136 157 88 0.255367 -0.617773 0.743737
-9.66367 0.942084 4.54653 83 84 78 0.585313 -0.567629 0.578969
-11.3633 2.01428 5.17549 136 103 60 0.511826 -0.664974 0.543915
7.58341 10.3466 0.721309 139 131 94 0.22411 -0.735034 0.639921
-4.6496 -3.52936 1.97439 152 134 96 0.465123 -0.491941 0.735972
-4.79386 4.51938 2.85207 144 151 169 0.619892 -0.456247 0.638413
8.13682 4.74322 -0.47673 104 104 54 0.206095 -0.683669 0.700086
-10.4481 -8.69958 2.47041 92 74 64 0.637737 -0.386223 0.666426
6.04268 5.73894 0.171409 65 106 76 0.235993 -0.662958 0.710489
-9.02934 5.20655 4.96747 53 74 65 0.287035 -0.728642 0.621846
-5.29464 3.7714 2.84755 137 161 171 0.533258 -0.548888 0.643706
8.01302 -8.1271 -0.114588 229 237 255 0.131287 -0.564283 0.815076
-6.23323 -3.69942 2.46085 129 140 74 0.445131 -0.542434 0.712477
5.22085 10.2844 1.96157 124 121 104 0.167688 -0.795692 0.582027
4.45234 3.96104 0.2184 152 143 126 -0.0775255 -0.676981 0.731906
-4.03184 -2.14458 1.87324 95 91 46 0.393578 -0.572037 0.719632
-8.67068 -1.15369 3.90633 137 152 175 0.643467 -0.488159 0.589619
9.23837 1.31341 -0.44813 82 95 39 0.214022 -0.550166 0.807163
3.28931 -7.94311 -0.0922591 142 149 79 0.25956 -0.559882 0.786867
7.83438 0.477428 -0.477645 112 106 58 0.187189 -0.653984 0.732984
-7.05131 1.29517 3.12138 116 127 155 0.66734 -0.390798 0.633983
-9.38573 4.13764 5.03335 34 102 81 0.468502 -0.650913 0.597343
-2.89908 5.69159 2.34648 80 125 128 0.297785 -0.718846 0.62816
-6.42258 -7.50939 1.77198 82 89 56 0.281333 -0.529974 0.799987
-1.42107 7.30084 2.41674 151 163 187 0.149771 -0.754307 0.639211
-5.4522 4.01457 3.11338 136 150 177 0.365973 -0.63864 0.676907
-9.6156 -4.3572 4.93709 55 87 72 0.68101 -0.376602 0.62801
-8.3256 -8.6281 1.92359 88 63 56 0.552757 -0.372966 0.745222
8.83558 -7.78358 -0.20761 207 210 225 0.35026 -0.416535 0.838938
-1.79385 5.20052 1.81074 133 131 92 0.33257 -0.655368 0.678151
-9.82694 -7.64314 3.33162 33 89 62 0.431858 -0.417905 0.799283
-7.54849 -0.681792 3.16991 124 139 160 0.324396 -0.548016 0.771003
4.81682 -3.9223 -0.286575 119 114 84 0.458046 -0.4785 0.749153
9.77869 -0.993937 -0.377604 193 196 213 0.138507 -0.561148 0.816045
3.54144 -5.18805 -0.229119 143 140 95 0.297382 -0.445215 0.844599
13.4716 -3.67718 -0.577856 164 149 120 0.0535648 -0.517933 0.853742
-1.59438 -7.47918 0.397131 120 112 50 0.366596 -0.552092 0.748867
8.69563 1.8627 -0.503877 139 138 94 -0.0638101 -0.658546 0.74983
8.31998 3.87299 -0.501558 94 91 38 0.223865 -0.697725 0.680488
-8.68645 -8.05492 2.40953 123 119 84 0.45027 -0.448998 0.771789
5.28457 -8.11336 0.432609 203 202 220 0.491679 -0.370283 0.788126
3.3143 -8.82403 -0.189157 143 130 111 0.0614653 -0.511013 0.857372
-1.01123 0.438369 1.03626 112 98 63 0.320298 -0.614192 0.721233
2.82923 10.1211 2.53071 144 132 92 0.217153 -0.74741 0.627872
6.81082 3.88145 -0.363088 144 142 129 -0.123571 -0.680315 0.722428
5.96803 9.80486 1.40116 95 95 83 0.0575945 -0.795344 0.603416
-4.84722 4.99633 3.36351 159 156 165 0.362448 -0.719287 0.59267
-5.27294 4.37127 3.16411 125 132 158 0.132036 -0.753042 0.644589
10.5866 3.24015 -0.558252 141 152 110 0.112691 -0.623397 0.773742
-8.27334 -6.03451 2.92215 44 108 81 0.0907097 -0.530821 0.842616
0.0305661 10.7527 3.10658 120 110 74 0.267367 -0.748122 0.607313
-8.01919 -0.437018 3.52235 155 169 196 0.464663 -0.58914 0.661062
6.31978 -2.14956 -0.289871 114 129 132 0.0362849 -0.628679 0.776818
8.2669 8.95557 -0.0199048 100 104 87 0.111758 -0.726007 0.678546
-8.16158 -4.24432 3.44582 129 127 148 0.39449 -0.625499 0.673148
-8.2946 1.1973 4.09481 57 91 77 0.463046 -0.667811 0.582767
-9.26467 -8.54915 1.98423 105 81 71 0.603052 -0.419961 0.678205
10.4951 4.15665 -0.59319 94 93 49 0.324661 -0.624572 0.710285
13.2517 6.70094 -0.656296 104 106 57 0.0125138 -0.753908 0.656861
13.1359 6.88093 -0.660103 128 126 87 0.170923 -0.631526 0.75628
-6.63527 -5.40346 2.37913 121 143 70 0.460636 -0.512383 0.724761
2.23407 9.14197 2.24577 59 89 63 0.19738 -0.726828 0.657847
2.07107 8.39753 1.98887 116 106 53 0.115186 -0.794477 0.596271
11.7862 -5.43613 -0.350738 127 160 115 0.0971382 -0.486173 0.868447
-0.336006 10.5609 3.06586 131 130 76 0.090559 -0.762005 0.641208
6.80648 10.3719 1.1363 117 110 92 0.13613 -0.792563 0.594401
-9.37623 2.87705 4.67278 60 99 78 0.0882213 -0.72313 0.685055
8.99182 -1.74164 -0.460957 109 109 73 -0.184568 -0.586378 0.78873
0.629069 -8.56489 -0.0710376 147 140 124 0.316156 -0.467871 0.825314
2.63711 9.19959 2.19747 80 89 60 0.222743 -0.735658 0.639682
-4.6928 4.1952 2.53288 137 141 140 0.227232 -0.715056 0.661105
-4.20384 5.4883 3.42587 117 110 94 0.541891 -0.556517 0.629796
-4.56935 -4.16847 1.84841 148 138 103 0.575405 -0.436498 0.691649
-11.6561 -6.47367 5.73344 84 97 69 0.709918 -0.389451 0.586808
-6.4796 -2.20596 2.60909 110 122 60 0.50961 -0.533094 0.675358
-10.2313 -0.216691 4.61287 107 92 85 0.67969 -0.480132 0.554521
7.89367 10.1986 0.391809 153 144 115 -0.253425 -0.705817 0.661512
0.825424 2.38693 0.737512 144 130 119 0.292747 -0.648189 0.702958
9.16259 -1.58848 -0.467854 163 166 171 -0.124288 -0.638601 0.759435
3.81914 1.28393 0.0333107 149 142 90 0.201797 -0.685362 0.699683
-9.93499 -7.40629 3.66198 76 102 99 0.635472 -0.428988 0.641985
8.40027 -5.12775 0.438879 187 190 205 0.429312 -0.317589 0.845475
-5.86999 0.724142 2.42911 97 82 75 0.649568 -0.471145 0.596728
10.9192 9.30578 -0.669145 128 127 79 0.0784603 -0.703397 0.706453
-4.46662 2.12588 1.93935 125 125 113 0.431505 -0.577576 0.692971
13.0157 -4.07236 -0.329707 140 154 92 0.0459633 -0.537254 0.842167
-1.10121 -5.51073 0.57663 133 128 70 0.531334 -0.442235 0.722573
7.34128 -5.88654 0.292473 203 203 215 -0.0258269 -0.606164 0.79492
0.409664 -8.57086 -0.0543003 188 178 168 0.437121 -0.390824 0.810051
-2.88674 -0.681809 1.46739 123 141 125 0.362965 -0.594706 0.717343
-7.02231 1.58217 3.1793 148 162 188 0.637498 -0.496519 0.589122
-5.81979 -4.07636 2.26707 111 115 56 0.2829 -0.599281 0.748886
-5.79283 -4.73864 2.15119 122 125 58 0.440554 -0.525678 0.727719
1.99532 4.22731 0.820668 122 124 100 0.247051 -0.670147 0.699906
3.10847 -8.68129 -0.156013 122 113 80 -0.193421 -0.383856 0.902908
-9.47511 8.34428 6.14949 108 135 84 0.523898 -0.68613 0.504735
2.55051 1.88905 0.278709 140 127 118 0.290247 -0.591253 0.752447
-10.9603 8.59431 6.62951 135 126 117 0.523259 -0.65668 0.543113
5.75331 8.9032 1.2756 93 100 84 -0.00168561 -0.765098 0.643912
-4.87196 -7.9726 1.20973 156 149 95 0.439523 -0.534618 0.721805
-1.92009 -8.1739 0.37937 146 137 82 0.157189 -0.516085 0.841991
-10.0079 -7.04976 4.07865 126 134 155 0.776199 -0.260105 0.574335
2.36816 -8.17622 -0.107195 115 103 51 0.458704 -0.422549 0.781692
-1.21341 10.7753 3.10724 156 149 103 0.285709 -0.786833 0.54705
8.26284 4.0629 -0.500359 125 120 65 0.355095 -0.592304 0.723245
11.6621 -1.74439 0.320841 210 218 231 -0.122435 -0.659984 0.741235
4.97667 8.72538 1.5388 152 146 132 0.507664 -0.550513 0.662731
2.24119 -6.63638 -0.140428 143 138 100 0.585129 -0.319057 0.745538
3.60105 -0.762643 0.24378 111 136 117 0.412666 -0.583713 0.699275
-3.81846 5.26085 2.99725 114 120 144 0.638282 -0.500346 0.585022
6.93696 4.73617 -0.313998 119 131 131 -0.126526 -0.661709 0.739008
-0.184116 -4.22323 0.489274 152 138 111 0.508389 -0.469762 0.721709
5.02022 3.25145 -0.0881242 118 116 93 -0.0144289 -0.684928 0.728468
6.39598 5.65638 0.0316746 93 118 86 0.239705 -0.693262 0.679654
6.4798 8.20691 0.703342 116 104 88 0.383977 -0.644852 0.660854
-9.64595 7.55161 5.90579 135 141 105 0.116484 -0.721507 0.682539
-2.78514 -5.27143 1.05905 148 133 76 0.0947552 -0.522711 0.847228
-5.8196 -5.8935 1.94425 105 105 79 0.553513 -0.46827 0.688728
4.3134 -8.38245 0.183247 181 186 189 0.0615317 -0.499702 0.864009
-10.0238 -7.25996 3.88765 101 106 126 0.280779 -0.53926 0.793953
-4.85932 -4.01509 2.00638 107 102 80 0.0697673 -0.538412 0.839789
-4.5027 0.536003 1.96856 141 132 99 0.389414 -0.607968 0.691905
-2.0711 0.479854 1.29542 123 108 103 0.342011 -0.670387 0.65849
-8.01943 5.04075 4.34705 137 127 117 0.650404 -0.524503 0.549428
-4.86817 2.85261 2.21067 135 131 84 0.509366 -0.567154 0.647211
-9.55425 -6.74586 3.90327 124 137 156 0.580951 -0.416259 0.699445
13.6191 1.15593 -0.644707 145 142 109 0.00852436 -0.63932 0.768893
-10.5635 -8.68401 2.05372 85 63 52 0.642502 -0.424047 0.638259
5.25794 -1.51211 -0.145767 123 145 107 -0.140148 -0.614967 0.775999
-0.63885 2.99409 1.19971 109 106 53 0.405184 -0.626617 0.665715
9.08655 2.08368 -0.492897 123 132 77 0.174902 -0.682963 0.709205
11.7903 -6.12092 -0.398705 203 221 231 0.368952 -0.462066 0.806455
8.65784 -3.04099 -0.354926 216 223 239 0.277888 -0.474073 0.835484
6.67616 -5.59526 1.18276 138 137 145 0.189401 -0.460961 0.866973
6.7567 -2.42527 -0.288254 248 252 255 0.209141 -0.696781 0.686116
12.3224 -8.70539 -0.342025 90 129 110 0.353712 -0.409327 0.841035
9.63516 -0.316465 -0.462528 201 204 219 0.142738 -0.667949 0.73039
8.90234 -4.14914 0.125566 229 236 255 0.267352 -0.623034 0.735086
11.1435 -7.95569 -0.259252 106 138 114 0.333186 -0.477635 0.812928
12.5645 -5.046 -0.388279 63 116 98 0.45932 -0.345511 0.818319
11.8798 -5.81231 -0.391895 85 124 103 0.391653 -0.418531 0.819414
5.03848 -3.37057 -0.309831 239 240 242 0.24917 -0.679203 0.690361
12.9583 -4.60424 -0.372046 110 143 112 0.289732 -0.547385 0.785128
4.45119 -4.76019 -0.268423 223 220 215 0.512243 -0.401449 0.759241
3.18802 -7.56259 -0.0992304 215 219 218 0.00525819 -0.532965 0.846121
4.47447 -3.8623 -0.286021 221 221 211 0.493925 -0.509119 0.704865
10.4742 1.83771 -0.513638 199 201 216 0.118458 -0.748423 0.652557
12.4698 -8.90728 -0.41742 141 165 139 -0.214008 -0.49424 0.842572
4.57304 -4.37178 -0.279787 103 104 98 0.463018 -0.464867 0.754661
10.0266 1.33555 -0.449203 231 240 247 0.353065 -0.609075 0.710192
13.7985 -3.99024 -0.630566 133 122 104 0.352505 -0.417277 0.837628
9.22774 -2.20705 -0.404825 106 108 107 0.154274 -0.705119 0.692103
8.80881 -7.89898 -0.214652 169 172 187 0.179511 -0.631863 0.754006
12.4082 1.81066 -0.581562 210 212 198 0.367142 -0.579027 0.727966
-9.66063 -5.31865 4.76483 68 90 104 0.560376 -0.556321 0.613584
6.11886 -3.44828 -0.309855 198 191 181 0.277369 -0.563304 0.778303
8.84084 -0.669117 -0.454349 205 212 231 0.441824 -0.463031 0.768371
-14.1472 -8.31547 0.237941 201 189 191 0.724745 -0.352072 0.592275
-8.15183 1.82785 4.05775 117 149 146 0.247337 -0.732867 0.633822
-5.36617 -4.95896 1.97715 50 45 16 0.709751 -0.384642 0.590172
-7.4634 -0.129038 3.24455 147 176 194 0.116049 -0.692089 0.712422
-9.22317 -0.621717 4.27617 149 149 173 0.28436 -0.657691 0.697555
-5.08059 -0.938468 2.29793 111 138 67 0.0402752 -0.683339 0.72899
10.7567 -2.62494 1.12233 192 194 206 0.444628 -0.518848 0.730139
-3.05113 -3.53439 1.51473 109 117 119 0.562792 -0.439804 0.699884
10.9016 1.27994 -0.480857 243 252 255 -0.148562 -0.701104 0.697412
-4.98334 -0.816223 2.23846 151 168 114 0.0634682 -0.629371 0.774509
10.7933 -2.71215 1.02477 153 157 169 0.370899 -0.529908 0.762647
-11.5241 -6.94752 5.56214 61 86 82 0.369979 -0.567114 0.735864
-8.69782 -2.97484 3.96912 62 91 105 0.362064 -0.654792 0.663443
9.23806 5.55044 -0.474462 150 164 138 0.0159919 -0.764567 0.644345
-9.12868 -0.772958 4.20558 98 100 123 0.282721 -0.655418 0.700354
-7.61965 2.30804 3.88855 132 152 176 0.0468166 -0.708554 0.704102
8.04973 -7.33231 0.104114 202 206 218 0.400631 -0.369416 0.838467
-8.9133 -6.08756 3.65796 107 128 133 0.409976 -0.633314 0.656379
-6.52995 -5.52896 2.33972 155 163 106 0.243958 -0.637118 0.731139
-3.25039 5.34137 2.36182 103 124 143 0.280613 -0.729471 0.623802
-4.48127 -1.17309 2.14796 141 153 105 0.607853 -0.53 0.591282
10.9304 -2.67676 0.852329 174 180 194 0.339104 -0.534363 0.774251
-7.54587 0.0140251 3.32365 102 124 145 0.243057 -0.662351 0.708671
13.8271 -2.80159 -0.654529 164 155 124 0.336001 -0.483031 0.808569
-10.5941 -6.33428 5.12116 103 108 127 0.490756 -0.579392 0.65074
13.8654 -2.48561 -0.658475 233 224 217 0.40008 -0.458329 0.793644
12.24 -8.49711 -0.337849 219 239 250 0.47964 -0.26142 0.837619
11.2284 -4.33741 0.147627 239 247 255 -0.0901972 -0.585364 0.805738
-3.20252 4.66636 1.99643 175 178 183 0.370444 -0.60495 0.704846
-0.526047 6.64517 2.01174 84 92 51 0.30847 -0.724042 0.616936
7.94952 -7.26737 0.187888 246 250 255 0.429165 -0.450114 0.78308
-7.89177 -4.1996 3.14521 55 83 60 0.474643 -0.575771 0.665734
-4.2228 4.71424 2.61817 68 100 95 0.564266 -0.598153 0.569049
-10.2158 -7.17405 4.16468 176 189 208 0.215527 -0.532914 0.818261
-3.32073 -3.24095 1.59107 128 127 135 0.490243 -0.53588 0.687382
6.9672 -7.03223 0.480119 236 239 254 0.381524 -0.506973 0.772928
-5.97606 -1.51156 2.54655 111 126 61 0.393684 -0.606101 0.691125
11.8584 -9.03595 -0.400869 158 175 157 0.106558 -0.619119 0.778034
3.82279 -1.01717 0.217002 144 166 120 0.454914 -0.565542 0.687906
-9.77474 -7.19259 3.74687 38 89 82 0.250428 -0.61554 0.747259
10.4638 -9.09374 -0.394768 252 252 255 0.362252 -0.454824 0.813578
-6.48145 1.62207 2.83637 170 164 166 0.315824 -0.719686 0.61831
-10.2189 -6.50005 4.69994 88 96 119 0.576062 -0.534031 0.61884
-9.92883 9.10353 6.7354 59 93 68 0.157005 -0.816449 0.555663
-10.8169 -7.07582 4.84668 93 96 113 0.731573 -0.364252 0.576299
-9.47778 2.17095 4.60282 69 86 76 0.279175 -0.693445 0.664226
-7.36081 1.0178 3.3013 164 181 189 0.543395 -0.590455 0.596728
1.34921 -2.75627 0.390908 135 125 90 0.598265 -0.455838 0.659007
-2.29476 -2.80273 1.28305 158 163 166 0.572088 -0.530114 0.625855
-11.4904 -7.66692 4.98304 69 89 98 0.248739 -0.583955 0.772739
-6.55493 1.75971 2.92617 115 118 127 0.68708 -0.455217 0.566302
-7.74132 -3.66235 3.08892 49 103 90 0.698998 -0.378399 0.606808
0.971368 -3.61028 0.376506 173 164 121 0.555277 -0.497589 0.666387
-10.6499 -8.70179 1.30062 116 88 77 0.568865 -0.472222 0.673349
13.941 0.241457 -0.674074 246 240 250 0.393382 -0.459783 0.796147
-5.64665 -4.10566 2.2049 153 153 103 0.328307 -0.662468 0.673313
10.5596 -2.50319 1.31654 146 148 161 0.460828 -0.437182 0.77234
-5.8736 -1.67563 2.49654 144 161 91 0.210041 -0.637269 0.741465
10.5656 6.281 -0.611929 173 176 119 0.193321 -0.743426 0.640269
-4.98022 -3.08433 2.12844 142 150 90 0.669596 -0.401583 0.624798
-10.8561 -6.985 4.95487 128 134 160 0.23573 -0.544045 0.805262
-8.63767 -3.18813 3.94206 82 127 130 0.614975 -0.476707 0.628137
-8.55847 -5.96558 3.29187 122 153 155 0.697834 -0.432384 0.571027
-5.08765 3.52644 2.55578 88 107 52 0.353418 -0.609684 0.709493
-11.2686 4.67313 5.49488 148 133 104 0.661838 -0.545964 0.513706
7.57727 -5.18484 0.474468 218 220 235 0.473303 -0.447458 0.758792
-8.12384 -4.56739 3.34606 93 102 117 -0.0528475 -0.583096 0.810683
-7.70137 1.9848 3.8745 124 139 168 0.48567 -0.583791 0.650625
-10.5649 -8.28166 3.47271 54 107 87 0.536408 -0.416101 0.734252
-8.1957 0.556008 3.87642 104 121 149 0.334304 -0.697539 0.633783
10.688 -5.11543 -0.19914 206 213 231 0.427484 -0.384573 0.818145
-11.1243 -7.22602 4.95709 122 134 158 0.788434 -0.266881 0.554207
-8.67072 -3.38374 3.9732 30 97 79 0.7252 -0.384728 0.571025
-11.3229 -7.926 4.57315 133 145 159 0.646807 -0.426371 0.632335
5.52346 11.1642 1.67601 172 165 146 0.276368 -0.785992 0.553025
-12.4792 -5.97177 5.9075 143 146 163 0.709069 -0.448762 0.543906
-2.2685 7.16772 2.77552 133 167 169 0.452848 -0.669387 0.58894
-5.86848 -2.66068 2.42632 80 84 25 0.323013 -0.668097 0.670305
-8.91881 -8.3068 2.39468 155 149 117 0.546816 -0.43993 0.712358
11.3014 1.01526 -0.502135 153 158 152 0.41497 -0.490937 0.766016
-7.89988 -5.12324 2.95608 40 71 53 0.706999 -0.351535 0.613657
-4.13715 -1.03641 1.95131 159 168 115 0.5685 -0.529884 0.629309
4.03691 4.99903 0.498737 135 134 104 0.515176 -0.586468 0.625019
-9.46615 -8.17649 2.78634 27 56 34 0.584013 -0.493296 0.644662
4.62311 -9.01221 -0.251426 240 238 249 0.556068 -0.273973 0.784683
4.88317 -0.475413 -0.167858 111 113 108 0.518593 -0.43363 0.736903
-5.41696 -1.66823 2.42834 101 124 56 0.646413 -0.501221 0.575263
10.4899 -2.31983 1.31247 182 185 200 0.40202 -0.539673 0.739685
-4.49136 -2.46744 2.01229 149 162 106 0.0272233 -0.660847 0.750027
13.5649 -3.0835 -0.583724 151 150 102 0.171404 -0.567806 0.805119
4.67653 -1.24859 0.0101673 148 163 124 0.585531 -0.391204 0.710009
4.59283 11.4366 1.89756 171 163 140 0.292135 -0.785837 0.545085
-9.05083 2.92157 4.34981 69 76 84 0.715162 -0.464353 0.522417
-7.16182 -5.62836 2.50507 140 156 111 0.473031 -0.480553 0.738452
0.634222 -3.607 0.452299 107 113 79 0.313216 -0.646675 0.695491
-9.56076 3.87532 5.03929 34 91 74 0.471751 -0.711508 0.520776
5.39365 11.0149 1.83846 107 98 81 0.279757 -0.785706 0.551726
-5.59212 -1.25676 2.47613 134 161 80 0.611653 -0.52147 0.594937
-5.89634 4.11826 3.48005 56 100 109 0.597907 -0.561254 0.572277
-6.23895 -2.91683 2.50315 113 129 66 0.638704 -0.449411 0.624569
1.33543 -0.970098 0.529232 95 98 69 0.411588 -0.643723 0.645148
8.68938 5.90828 -0.406199 116 131 124 -0.0174149 -0.762866 0.646322
-8.88867 -4.23766 4.22413 149 155 141 0.404856 -0.6481 0.645026
-4.64252 4.44523 2.68412 124 132 145 0.109585 -0.730538 0.674021
6.40608 -2.35464 -0.288458 136 153 135 0.495987 -0.42067 0.759627
-8.9044 -2.1448 4.11373 40 83 90 0.62076 -0.484545 0.616338
6.78121 -7.25121 0.522688 241 245 255 0.386572 -0.502659 0.773238
-8.24552 4.73391 4.3467 141 129 129 0.317155 -0.742436 0.590086
9.32584 6.24736 -0.463344 149 151 127 0.218099 -0.740686 0.635466
6.57585 8.47378 0.733259 114 107 89 -0.192674 -0.738548 0.646084
-2.71294 -0.0159206 1.42825 127 146 114 0.51783 -0.570936 0.63709
1.6428 -4.57333 -0.0444179 169 159 108 0.608939 -0.350983 0.71134
-2.31085 2.16818 1.49127 130 102 81 0.589734 -0.494781 0.638283
-11.304 -6.95842 5.35836 117 119 140 0.363953 -0.565956 0.739752
-8.62623 -5.39979 3.61613 123 128 147 0.702103 -0.440901 0.559157
-14.5197 -8.17024 0.198659 201 186 189 0.734787 -0.365284 0.571539
11.0788 2.56593 -0.507169 95 120 91 -0.229976 -0.701649 0.674388
-10.2831 -7.79399 3.56826 104 133 131 0.503299 -0.533061 0.680099
-9.67026 3.57734 4.99266 102 146 119 0.375611 -0.742034 0.55525
-1.75 7.04947 2.46794 82 116 118 0.62216 -0.531188 0.575114
14.2364 9.0117 -0.809039 165 165 131 0.114335 -0.77346 0.623447
13.7451 10.5782 -0.769271 155 150 120 0.121061 -0.784991 0.607564
7.42152 -6.59847 0.438878 232 236 248 -0.0954405 -0.552539 0.828005
9.56075 3.96262 -0.558372 154 157 100 0.220773 -0.718342 0.65973
3.55329 4.49629 0.514308 176 163 129 0.234605 -0.704743 0.66955
12.2007 -5.01045 -0.299028 240 254 255 0.0938835 -0.61149 0.785662
7.31302 10.766 0.943837 132 134 97 -0.0732631 -0.761689 0.643787
-6.34945 -1.33669 2.70945 140 146 98 0.406163 -0.524632 0.748193
