ply
format ascii 1.0
comment alvar_tracker Pointcloud
comment filenames frame_0000.jpg frame_0001.jpg frame_0002.jpg frame_0003.jpg frame_0004.jpg frame_0005.jpg frame_0006.jpg frame_0007.jpg frame_0008.jpg frame_0009.jpg frame_0010.jpg frame_0011.jpg frame_0012.jpg frame_0013.jpg frame_0014.jpg frame_0015.jpg frame_0016.jpg frame_0017.jpg frame_0018.jpg frame_0019.jpg frame_0020.jpg frame_0021.jpg frame_0022.jpg frame_0023.jpg frame_0024.jpg frame_0025.jpg frame_0026.jpg
comment filenames frame_0027.jpg frame_0028.jpg frame_0029.jpg
element vertex 716
property float x
property float y
property float z
property uchar red
property uchar green
property uchar blue
property float nx
property float ny
property float nz
element vtt_fi_alvar_camera 0
property float fx
property float fy
property float lambda
property float px
property float py
property int width
property int height
element vtt_fi_alvar_keyframe 0
property float x
property float y
property float z
property float qw
property float qx
property float qy
property float qz
property int camera_index
property list int int vertex_index
property list int float projections
end_header
-10.0874 -5.11861 8.67507 195 136 142 -0.223854 -0.74149 0.632521
-2.83152 -7.80761 6.80207 135 103 90 -0.268856 -0.617909 0.738853
6.73092 4.42031 8.66249 144 108 82 -0.4157 -0.713977 0.56341
-12.2556 -2.8181 1.00661 200 185 190 -0.160319 -0.698826 0.697094
10.4067 -1.35232 7.772 156 115 87 -0.323643 -0.669122 0.668978
-11.6959 -4.7536 -1.47478 193 171 174 -0.168567 -0.65812 0.733801
12.3355 3.50069 8.54403 159 143 128 -0.411309 -0.694692 0.590109
6.83973 -1.01963 8.17141 106 74 61 -0.201216 -0.71009 0.674747
-10.338 -9.40848 -1.5078 186 139 149 -0.201792 -0.604814 0.770376
-11.7847 -4.38224 -3.22156 172 154 154 -0.162681 -0.647395 0.74459
16.0857 -2.73177 -4.80884 186 142 141 -0.425732 -0.553375 0.715911
1.94477 -6.8026 1.64936 157 129 118 -0.404687 -0.617783 0.67422
-13.2131 0.472901 1.08306 199 181 181 -0.0704847 -0.68739 0.72286
-6.46493 3.63297 8.54625 124 106 84 -0.237008 -0.73344 0.637098
-9.45019 0.516472 8.91313 171 132 127 0.129722 -0.770825 0.6237
-10.7897 -7.76611 -0.702547 178 136 146 -0.192379 -0.631365 0.751245
1.03178 -7.14574 2.60378 164 136 132 -0.397247 -0.6251 0.671896
-11.4796 -5.32601 -0.356171 157 125 126 -0.17593 -0.66152 0.728999
-3.79279 -0.54002 8.81865 145 105 97 -0.144417 -0.703446 0.695922
8.55025 7.24333 8.45329 104 69 47 -0.451874 -0.749765 0.483386
-8.99299 -10.1609 -2.55501 154 118 118 -0.144193 -0.549457 0.822986
-14.8924 6.07234 0.257141 164 156 153 -0.101641 -0.765602 0.635234
-13.5921 1.5492 -1.41656 176 131 134 -0.126427 -0.717947 0.684521
-11.9128 -3.89517 -1.19214 164 142 145 -0.163827 -0.669319 0.724688
-6.84541 -0.659157 8.89517 140 127 108 -0.0924693 -0.700185 0.707948
-3.76496 -2.32927 8.67458 173 157 158 -0.325169 -0.740761 0.587824
-11.8516 -4.17876 -1.37696 175 155 157 -0.165021 -0.664898 0.728477
3.21797 -7.13005 4.87841 123 81 65 -0.440528 -0.631717 0.637863
-2.68438 2.77184 8.73839 47 18 14 -0.208778 -0.708375 0.674253
-8.66866 -2.68596 8.88449 47 23 21 -0.0921643 -0.668492 0.737987
-7.09901 0.786729 8.85829 88 57 39 0.122427 -0.73021 0.672165
12.7268 -2.84149 6.85082 56 45 39 -0.255655 -0.637298 0.726974
-2.99519 -6.78282 7.30447 178 159 145 -0.278933 -0.581052 0.764575
-9.3321 -3.12943 8.89344 149 122 103 -0.0237524 -0.665631 0.745903
-10.2874 -9.61873 -3.18476 152 128 142 -0.0586911 -0.510501 0.857872
5.17519 9.72658 7.58694 107 80 63 -0.295404 -0.713308 0.635553
-12.7687 -1.18279 1.97037 120 104 107 -0.106054 -0.616483 0.780193
8.43799 -4.83895 -1.13234 188 154 152 -0.355557 -0.537958 0.764317
-4.6442 1.71824 8.81601 150 126 114 -0.236302 -0.679226 0.694848
-4.24343 -8.67002 6.55789 130 96 97 -0.228978 -0.570396 0.788807
16.2421 1.01182 7.94482 107 81 68 -0.298416 -0.669409 0.680324
8.87373 -4.21335 6.775 182 164 162 -0.141062 -0.67008 0.728762
3.17495 5.34233 8.55651 102 80 59 -0.287185 -0.710811 0.642084
-5.91217 2.40512 8.7452 100 84 85 -0.159135 -0.712317 0.683579
-2.40334 -7.89283 6.68939 178 131 137 -0.233549 -0.588111 0.774326
15.0342 4.97429 8.63666 77 70 60 -0.47461 -0.636426 0.608036
-7.14991 -9.3893 6.58833 157 139 139 -0.122154 -0.578158 0.806729
-7.61392 -7.78479 7.48931 199 186 178 -0.208384 -0.582347 0.785779
-9.5846 -6.74068 8.17304 174 101 108 -0.110546 -0.626995 0.77114
-7.8541 -0.779931 8.91988 76 52 24 -0.101977 -0.687501 0.718987
12.505 2.89181 8.46839 126 119 111 -0.428843 -0.64224 0.635312
-7.48112 -6.04791 8.16763 162 83 86 -0.0230503 -0.647676 0.761567
-14.1512 3.32491 -1.56407 231 192 197 -0.0484024 -0.64589 0.761895
11.4548 3.79438 8.557 58 46 34 -0.439802 -0.640804 0.629241
-14.543 6.18701 7.09119 139 121 117 -0.0176849 -0.736516 0.676188
7.98727 -4.96992 0.401211 139 112 101 -0.312272 -0.545886 0.777492
15.0942 0.857204 7.98702 116 95 76 -0.419619 -0.632877 0.650682
-12.5394 -2.03243 1.66594 174 165 168 -0.0499651 -0.624486 0.779436
10.208 1.64458 8.4235 150 112 93 -0.361677 -0.657109 0.66136
15.9257 5.14188 8.72087 173 163 151 -0.43143 -0.656715 0.618542
-11.3227 -5.91192 -0.628936 131 112 114 -0.102034 -0.554931 0.825615
-10.6845 -4.58376 8.88113 137 88 81 -0.0905444 -0.646435 0.757578
7.42027 -1.63904 7.97235 157 116 96 -0.207774 -0.655457 0.72609
-6.82961 -4.72343 8.46745 167 101 102 -0.217174 -0.621554 0.752666
-7.97161 -7.93382 7.46906 163 152 146 0.148325 -0.639394 0.754437
-8.87392 1.61958 8.79175 192 159 154 -0.122671 -0.693222 0.710207
9.07664 -4.27073 6.72238 133 114 110 -0.187938 -0.624676 0.757931
-2.64438 -8.15906 -0.626889 132 108 98 -0.230885 -0.522435 0.820825
3.50346 -0.322069 8.51137 108 71 63 -0.356719 -0.63443 0.685748
-8.36563 -8.15718 7.41937 173 166 160 0.155389 -0.635964 0.755913
3.1143 9.56124 7.44109 156 124 103 -0.310752 -0.728773 0.610183
-12.4439 -2.27063 1.06025 165 150 155 -0.08186 -0.610561 0.787727
-1.92423 -7.94753 6.59249 164 133 131 -0.0259025 -0.605493 0.795429
-14.3936 3.9636 -2.12439 170 142 141 -0.0440672 -0.64748 0.760807
4.85241 -4.12512 7.35332 111 71 63 -0.300248 -0.618144 0.726463
-6.42916 1.1709 8.84664 130 114 91 -0.179895 -0.688828 0.702249
12.3019 -3.8495 6.46819 151 115 115 -0.161878 -0.60105 0.782646
-10.8842 -5.23688 8.74382 181 106 113 -0.118814 -0.636525 0.762049
-14.0197 3.14216 1.06778 167 155 157 -0.0521451 -0.664712 0.745278
-2.9403 -8.27312 -3.47481 203 148 151 0.236106 -0.446222 0.863215
-9.80152 -4.00114 8.82905 190 159 141 -0.104267 -0.650652 0.752184
3.69753 6.1223 8.45526 138 102 78 -0.337087 -0.687277 0.643446
11.6262 -3.93539 -1.86944 185 147 144 -0.389732 -0.533723 0.750499
-6.83899 -2.69881 8.80088 115 78 70 -0.153316 -0.669709 0.726625
9.03038 3.07853 8.5832 118 87 67 -0.357998 -0.66476 0.655691
-9.47767 -10.312 3.51309 194 182 182 -0.139519 -0.537393 0.831711
13.9367 -0.470919 7.66442 135 104 73 -0.48097 -0.588184 0.65016
-9.7104 -10.3982 0.270096 184 144 153 -0.160937 -0.501887 0.849829
14.7691 6.74477 8.70325 88 50 37 -0.439956 -0.665116 0.603373
-14.4047 4.14821 -1.97514 210 184 183 -0.043894 -0.650254 0.758448
11.5631 -3.96727 -1.47035 113 86 77 -0.390733 -0.535874 0.748443
-7.74912 2.4548 8.69483 118 90 78 0.0527194 -0.73634 0.674555
-6.1596 -9.27848 -4.20123 114 84 76 0.28254 -0.423412 0.860751
10.7217 -4.21116 -1.42061 207 160 154 -0.262333 -0.563292 0.783507
-12.5256 2.41462 8.68619 144 104 92 -0.0519882 -0.720125 0.691894
-0.253137 -6.66297 6.95921 160 141 137 0.223906 -0.54582 0.807432
-6.51174 -4.86444 8.42081 195 167 166 -0.162054 -0.644363 0.747352
-7.97398 -7.57782 7.63471 147 129 115 0.202374 -0.567289 0.798265
-9.67499 -10.3568 -3.17237 197 170 177 0.352751 -0.456516 0.816799
-4.38947 -8.68466 -2.71118 146 89 95 -0.146675 -0.519275 0.841926
7.41007 1.99785 8.5785 160 129 109 -0.398864 -0.641367 0.655405
15.6799 6.93417 8.77952 123 94 80 -0.277779 -0.715749 0.640736
-14.3207 3.80236 -2.51846 187 157 159 -0.075027 -0.630439 0.772605
0.136617 2.72979 8.77382 155 132 124 -0.220304 -0.698517 0.680838
13.183 5.69909 8.62845 137 116 99 -0.192151 -0.753454 0.628797
7.052 -2.23192 7.81009 121 75 59 -0.0468282 -0.636096 0.770188
14.2993 4.64791 8.59671 81 91 93 -0.433317 -0.664549 0.608779
14.9401 6.60766 8.72252 112 74 61 -0.433079 -0.678001 0.593935
7.58751 -5.10913 -0.686559 163 129 119 -0.315222 -0.543854 0.777726
-7.21063 8.71332 6.7891 122 102 93 -0.159801 -0.746119 0.646351
-2.8237 -1.04494 8.76501 102 69 64 -0.218241 -0.659902 0.718958
-3.4895 -5.85274 7.76744 111 96 93 -0.216144 -0.608354 0.763667
-4.71519 -2.80635 8.66526 120 96 84 -0.188851 -0.663359 0.724079
-9.74448 -10.3975 0.826447 221 200 205 -0.111316 -0.517881 0.848179
-13.3126 0.663332 2.01983 164 150 150 -0.0659437 -0.648889 0.75802
9.95056 -3.85647 6.77794 158 143 140 -0.405682 -0.593129 0.695428
-7.50054 -3.50151 8.73556 208 170 159 -0.112281 -0.658282 0.744351
-8.35009 -0.797768 8.93889 168 123 104 0.0633132 -0.662239 0.746613
-6.09999 -3.41364 8.66067 143 115 112 0.201954 -0.598991 0.77487
-7.41241 -9.6348 -0.0744118 138 114 112 -0.174883 -0.507598 0.843659
-11.8386 -1.49695 9.15043 164 122 110 -0.101718 -0.688559 0.718012
-4.86595 0.529892 8.86083 167 139 135 -0.149103 -0.691444 0.706875
-11.1399 -6.65523 -2.09968 150 124 123 -0.10368 -0.53448 0.838798
-6.33646 3.96248 8.48132 109 91 71 -0.205276 -0.699005 0.685021
2.08053 -5.7811 7.01545 122 112 110 -0.318931 -0.588652 0.742813
-14.1224 3.19117 -2.65982 158 133 129 -0.0482833 -0.636346 0.769892
15.0527 -2.99485 -2.98856 179 134 129 -0.39186 -0.531771 0.750776
-13.911 2.32967 -2.33428 217 200 206 -0.0521614 -0.630732 0.774245
-6.02486 0.926657 8.84855 99 91 72 -0.186541 -0.686011 0.703272
-13.9766 2.58982 -2.06263 191 167 163 -0.0511794 -0.635257 0.770603
-14.0356 2.73662 -2.54672 187 167 168 -0.0499023 -0.632975 0.772562
-14.5799 4.81467 -0.0365162 171 148 142 -0.0418603 -0.670981 0.740292
-5.63889 -9.09557 -2.99361 172 124 124 0.0963679 -0.468526 0.878178
12.7279 4.59693 8.58218 88 98 97 -0.280956 -0.69359 0.663322
5.22885 -6.48549 3.62503 140 112 101 -0.383789 -0.541669 0.747864
-11.2497 -6.23774 -2.59803 124 98 97 -0.100747 -0.535831 0.838293
-10.49 -8.85965 -0.232166 206 164 174 -0.14586 -0.517541 0.843135
-11.197 -6.41812 -3.13684 162 132 130 -0.127409 -0.525997 0.840889
15.7563 4.69548 8.66639 124 111 105 -0.231368 -0.683122 0.692685
-4.87566 -1.25647 8.8205 141 111 100 -0.06388 -0.695011 0.716156
0.654359 -5.45974 7.36497 128 108 107 -0.27882 -0.612232 0.739886
-11.0697 -6.74585 -0.0551694 166 147 153 -0.108063 -0.549179 0.828689
-11.7879 -4.32708 0.0899389 180 149 147 -0.0936194 -0.579498 0.809579
-6.92354 6.19362 7.79306 117 79 66 0.334119 -0.638211 0.693579
-8.3619 -6.12227 8.24344 194 140 138 -0.131553 -0.632659 0.763175
-11.1597 -6.42682 0.454817 175 146 151 -0.106968 -0.557216 0.823449
-12.0619 -3.42254 0.0063781 162 132 132 -0.0880757 -0.589206 0.803168
-12.9712 -0.59704 1.9214 208 194 194 -0.0724997 -0.635395 0.768776
13.9979 2.84453 8.42683 87 67 56 -0.109012 -0.688443 0.717051
2.14221 1.25355 8.71522 161 101 75 0.0190648 -0.681861 0.731233
-11.5633 -5.1657 -2.72124 157 133 133 -0.0382043 -0.561576 0.826543
-7.67855 1.85054 8.77294 137 88 83 -0.169603 -0.709124 0.684381
1.65096 7.733 7.93867 112 97 78 -0.276337 -0.712737 0.644704
-11.6762 -4.70181 -3.27003 162 141 140 -0.0915312 -0.549111 0.830722
3.90506 -2.70724 7.9808 153 135 131 -0.321929 -0.634821 0.702399
-5.94311 3.6164 8.56915 123 109 98 -0.194408 -0.718567 0.667732
8.53199 5.0829 8.61912 154 122 99 -0.138644 -0.705191 0.69533
9.46333 -4.60202 6.53108 197 178 174 0.15282 -0.565696 0.81033
-9.4753 -0.470277 8.98637 147 71 71 -0.105675 -0.683061 0.722676
-11.4284 -5.51682 0.835001 152 132 134 -0.10195 -0.571415 0.814304
-2.46537 -8.10888 -2.58797 196 153 147 -0.205924 -0.517614 0.830464
2.35468 5.79258 8.45842 110 82 60 -0.272744 -0.699442 0.6606
-11.5804 -5.02887 -2.52517 183 165 165 -0.0943182 -0.550874 0.829242
-11.8791 -3.9734 -0.6411 175 151 151 -0.0908358 -0.577755 0.81114
8.38647 -3.85653 6.99365 155 110 91 -0.193356 -0.629897 0.752225
-10.4925 -3.4622 8.96613 175 126 112 -0.123333 -0.655314 0.74522
-9.90917 -3.61382 8.90658 122 89 70 -0.165936 -0.642596 0.748021
7.57705 -4.3842 6.87771 133 99 87 -0.181215 -0.62528 0.759069
1.61903 1.52364 8.74948 138 91 63 -0.077706 -0.72331 0.686137
-8.3866 -9.93036 -4.21532 180 140 149 -0.170457 -0.476565 0.862456
-13.1201 -0.0423041 1.71606 200 184 185 -0.0693985 -0.639358 0.765771
-8.15417 -5.69451 8.3494 182 116 118 -0.164239 -0.624476 0.763581
16.3222 -0.0218581 7.54766 181 164 157 -0.257244 -0.64101 0.72314
11.0247 1.57676 8.39014 154 120 93 0.0163271 -0.665621 0.746111
12.373 -3.7438 1.09315 158 141 133 -0.410862 -0.550487 0.726744
-9.72283 -10.377 4.11415 180 157 165 -0.105693 -0.546869 0.83052
3.84412 -3.37318 7.76443 172 144 140 -0.371062 -0.612767 0.697732
-0.168467 -7.42912 -0.365148 195 171 161 -0.245317 -0.536095 0.807726
-7.81529 -7.08605 7.8287 152 131 104 -0.204555 -0.593308 0.778552
-3.10736 0.292529 8.83679 178 157 152 -0.176856 -0.686106 0.705677
-1.27696 4.40294 8.55175 177 153 143 -0.266951 -0.711871 0.649597
-7.54107 -0.974509 8.92699 89 66 50 -0.138795 -0.687942 0.71237
-11.5635 -5.02187 0.63958 165 141 141 -0.0988493 -0.575744 0.811633
-9.33759 0.390015 8.92791 171 123 121 0.102298 -0.67149 0.733918
-11.9305 -3.94712 0.736195 163 134 128 -0.0600245 -0.597891 0.799327
-6.03448 -3.68447 8.6133 194 159 155 0.318463 -0.579584 0.750109
7.38534 2.35269 8.6001 146 104 79 -0.169113 -0.699919 0.693912
-12.2034 -3.24689 -4.08423 177 162 167 -0.0809927 -0.55978 0.824674
-6.35347 0.16784 8.87593 108 91 73 -0.152779 -0.683221 0.714051
-8.48804 6.39045 7.57324 127 114 97 -0.145104 -0.737695 0.659356
-13.8828 2.4564 -1.44871 183 142 140 -0.053095 -0.63867 0.767647
-14.6019 4.79006 -1.86426 204 170 169 -0.0710214 -0.643192 0.762404
-12.5019 -2.32415 -4.71508 173 161 171 -0.074999 -0.565362 0.821426
0.258805 -7.28181 -1.00216 157 117 105 -0.073261 -0.547014 0.833912
-10.3859 -9.19957 0.167524 185 137 151 -0.123034 -0.519231 0.845731
-14.8801 5.91369 -0.511665 159 141 137 -0.0365659 -0.676726 0.735326
-13.4876 6.31902 7.11776 132 123 106 -0.0627352 -0.739817 0.669877
-5.42755 8.30209 7.1072 110 95 74 -0.150522 -0.729118 0.66763
-12.3083 -2.77617 2.21944 142 133 138 -0.0859268 -0.614598 0.784147
-9.00018 -7.41305 7.84312 168 87 96 -0.162486 -0.605887 0.778781
-11.5098 0.779222 8.9523 152 123 109 -0.132938 -0.686123 0.715236
3.90606 -6.19167 -0.76667 147 113 101 -0.268119 -0.540696 0.797346
-11.651 -5.10918 -4.05097 168 150 148 -0.0912972 -0.538627 0.837583
-12.1173 5.90912 7.4527 102 85 59 -0.0302793 -0.730712 0.682015
-14.532 4.78495 0.624101 182 164 162 -0.0739111 -0.660289 0.747365
3.52387 3.80628 8.70404 150 128 115 -0.314861 -0.683115 0.658951
-3.72888 -1.41133 8.75416 178 138 128 -0.0878836 -0.687951 0.720417
-14.8188 5.49334 -1.45802 163 144 137 -0.0372651 -0.665989 0.74503
-12.5309 0.23739 9.08665 123 90 85 -0.0572495 -0.69243 0.71921
-9.55979 -10.3621 4.59813 163 130 125 -0.10904 -0.550507 0.827679
-13.3388 0.796711 0.751883 177 155 157 -0.0358582 -0.644194 0.764021
-14.8489 5.4434 -3.31359 170 152 150 -0.0360595 -0.651727 0.757596
3.40631 -1.27002 8.38256 145 126 122 -0.358214 -0.625085 0.693506
-11.6702 2.38055 8.66101 124 110 97 -0.0688012 -0.70557 0.705293
2.72968 -3.00671 8.01579 151 130 125 -0.102049 -0.655298 0.748445
-14.6633 4.87603 -0.888873 193 155 152 -0.0401407 -0.664984 0.745778
1.70974 2.32593 8.75608 142 93 60 -0.0259272 -0.733593 0.679094
-4.92975 -2.8366 8.67658 169 141 129 -0.153367 -0.660314 0.735162
15.2533 3.75381 8.53067 132 127 121 -0.0476215 -0.673059 0.738054
-6.67004 0.847003 8.84992 95 80 61 -0.189382 -0.698516 0.690079
0.288909 -5.54017 7.36881 132 117 114 0.158956 -0.571426 0.805112
12.8121 -3.62091 -2.00206 173 129 126 -0.233792 -0.568516 0.788753
-11.4489 -5.42142 -0.131504 156 132 132 -0.127433 -0.55744 0.820379
-12.9331 -0.504845 -0.536373 162 147 152 -0.0707884 -0.616458 0.784199
5.52702 0.218709 8.47967 76 49 40 -0.00101905 -0.708295 0.705915
-12.2349 -2.97408 1.42698 210 191 195 -0.0864357 -0.605815 0.790896
7.84529 -1.52485 7.95323 158 107 80 0.0613061 -0.642031 0.764223
-10.2497 -9.7839 -1.44662 189 168 167 -0.12306 -0.499016 0.857811
-10.7418 -7.91357 0.0566832 181 139 151 -0.1414 -0.530658 0.835709
-14.4246 4.35208 -0.981536 179 139 140 -0.0440053 -0.659625 0.750305
-10.1588 -9.92312 -0.222429 203 157 170 -0.152296 -0.504756 0.849722
5.92234 -5.60837 -1.65755 145 110 91 -0.322562 -0.533373 0.781964
1.19864 4.40409 8.63166 178 164 161 -0.304937 -0.704162 0.641225
-8.52991 -7.02754 7.94581 166 105 102 -0.0978674 -0.617234 0.780669
-13.2918 0.59487 1.76137 162 144 142 -0.0661227 -0.646095 0.760388
5.57698 2.0845 8.6554 165 137 136 -0.331764 -0.677541 0.656408
13.9794 -0.976571 7.47229 127 95 72 -0.496313 -0.591811 0.635163
3.93871 9.48196 7.56569 163 132 114 -0.253378 -0.729226 0.635633
-10.4579 -8.9109 0.168974 218 186 197 -0.12144 -0.52308 0.843587
-9.04463 -10.1665 -1.18328 161 125 125 -0.0809988 -0.512538 0.854835
2.84211 10.0297 7.23982 141 113 92 -0.30483 -0.731665 0.609709
-9.48471 7.79503 6.92885 110 100 73 -0.125861 -0.744548 0.655597
7.00735 -5.33195 -4.21323 160 124 102 -0.293501 -0.525986 0.798246
-3.0063 -8.24186 6.58502 140 83 89 -0.189801 -0.584707 0.788729
-10.2957 -9.55806 -1.00615 192 147 154 -0.122833 -0.505364 0.854119
1.8962 8.51531 7.70194 151 134 114 -0.177408 -0.733508 0.656119
12.7411 -1.11691 7.57794 131 108 100 -0.482444 -0.596757 0.641194
6.85027 2.45175 8.62794 137 101 89 -0.315317 -0.676447 0.665578
8.58681 -1.28834 7.96365 179 129 104 -0.217788 -0.654403 0.724103
-10.4375 -9.01715 -3.20074 164 134 136 -0.11597 -0.496222 0.860415
-8.27581 -2.87974 8.84688 188 153 151 -0.0973785 -0.668812 0.737026
-7.65223 -8.03801 7.37524 151 138 130 -0.188141 -0.590951 0.784461
-14.7188 5.18397 -1.52967 208 174 172 -0.0388766 -0.662774 0.74781
8.72062 -1.07705 8.00849 164 114 87 -0.432373 -0.618229 0.656389
-13.7584 1.82379 -3.82413 155 131 144 -0.0538179 -0.614683 0.786936
10.8256 -1.7581 7.56874 127 88 71 -0.150469 -0.605159 0.781756
3.48559 -7.53015 4.78175 179 140 143 -0.335256 -0.550561 0.764516
-7.89445 1.81288 8.78282 180 132 128 -0.128385 -0.711156 0.691212
13.8344 4.5293 8.58855 72 82 83 -0.393093 -0.67113 0.628539
-11.5392 -5.10803 0.391228 180 154 155 -0.0990038 -0.572714 0.813755
-4.80032 5.43478 8.19109 158 134 122 -0.207632 -0.727378 0.654072
-1.75303 6.35047 8.1197 104 78 65 -0.252448 -0.725552 0.640191
-1.11127 2.12028 8.79916 40 25 22 -0.247039 -0.679564 0.690771
3.39974 8.20412 7.95309 52 29 15 -0.254799 -0.713197 0.653014
-3.0737 2.4996 8.75581 57 33 29 -0.139249 -0.705605 0.694788
-8.46132 -1.91472 8.90872 60 34 21 -0.149693 -0.661892 0.734501
5.28393 7.07077 8.33836 68 35 18 -0.281861 -0.703276 0.652654
4.76578 7.01179 8.33833 71 28 22 -0.308486 -0.696793 0.647546
-7.33248 -6.16786 8.11098 194 136 135 -0.0841569 -0.632773 0.769751
10.8737 -4.17122 -3.52231 179 139 129 -0.306685 -0.543482 0.781391
14.8984 4.89538 8.62568 67 63 60 -0.270691 -0.70177 0.658973
5.06269 3.05824 8.7045 125 95 85 0.134683 -0.676747 0.723792
-6.44318 -7.57755 7.42206 181 162 164 -0.14788 -0.599998 0.786215
-4.04891 -8.59534 0.157757 132 109 103 0.143118 -0.510704 0.847761
-9.58329 -2.82259 8.94078 151 108 92 0.0554192 -0.685002 0.72643
14.8265 -0.527939 7.53674 117 91 76 -0.29997 -0.661811 0.68704
-9.10016 1.37783 8.82685 125 85 85 -0.135235 -0.689405 0.711641
4.47214 6.87266 8.35874 162 104 102 -0.029782 -0.722286 0.690953
-6.82935 1.78953 8.78851 95 70 63 0.0117032 -0.72044 0.693419
12.5177 1.79578 8.32818 194 163 160 0.0165192 -0.668812 0.743248
-6.09323 -9.26256 -4.16161 117 82 76 -0.0917461 -0.514795 0.85239
12.9112 0.847742 8.14301 97 88 81 -0.358614 -0.64283 0.67688
-11.2996 -6.06088 -0.467819 139 120 122 -0.0420387 -0.575575 0.816668
-6.82561 -4.91442 8.42637 150 90 90 -0.091372 -0.646546 0.757383
11.6011 5.00261 8.59004 86 93 86 -0.39581 -0.661879 0.636593
-9.12192 -7.28251 7.91539 202 122 133 -0.106455 -0.609966 0.785244
17.7 -2.28549 0.372759 169 144 140 -0.422632 -0.560171 0.712454
-0.540577 8.77412 7.36238 155 129 112 -0.18827 -0.738696 0.647211
9.531 6.95373 8.50182 88 52 28 -0.365447 -0.682573 0.632884
-7.30945 8.47967 6.862 85 61 51 0.0757239 -0.735948 0.67279
-6.09623 2.10365 8.77182 143 129 129 -0.0959711 -0.706494 0.701181
-8.21449 5.8384 7.83324 148 109 92 -0.0859575 -0.733957 0.673735
6.26315 -5.49381 -0.0235331 164 126 107 -0.116234 -0.583616 0.803668
-3.68035 -8.51194 -0.0969401 198 169 165 -0.174989 -0.534598 0.826792
10.329 5.68126 8.60096 134 116 106 -0.379123 -0.671333 0.63685
13.8841 0.725389 8.03472 175 148 127 -0.266804 -0.669848 0.692906
-8.59431 0.0578156 8.92789 146 71 75 -0.144754 -0.678853 0.719864
13.4018 -3.48653 -3.9517 128 88 78 -0.3961 -0.517977 0.758159
7.9453 5.72379 8.591 152 117 97 -0.309863 -0.704976 0.63796
-1.06159 -6.53895 7.13617 138 86 99 -0.104596 -0.619793 0.777763
-2.97168 -1.06511 8.76487 119 84 82 0.0171971 -0.690472 0.723154
3.65721 -0.552993 8.47611 128 103 99 -0.317099 -0.642648 0.697461
-1.57389 -7.19947 6.91763 131 84 94 -0.219601 -0.591792 0.775602
-11.1567 -4.62689 8.89743 163 129 130 -0.0229805 -0.655423 0.754912
-8.71882 -6.41572 8.18894 173 100 109 0.316445 -0.554362 0.76977
-10.6262 6.79381 7.21662 134 117 91 -0.0500521 -0.737625 0.673353
0.194298 2.65464 8.77621 134 109 102 -0.115646 -0.711967 0.692625
-10.8395 6.95752 7.11815 111 93 71 0.378867 -0.628528 0.679274
12.2459 -3.80127 6.50328 150 115 119 -0.425875 -0.573683 0.699656
4.61299 -6.73814 5.34105 173 134 119 0.10064 -0.555408 0.825465
-9.63214 -9.84615 6.75789 178 138 147 0.221479 -0.536798 0.814122
-4.25765 -1.80356 8.75952 130 87 80 -0.211577 -0.654084 0.72623
-2.00191 -8.01838 -5.58795 136 106 106 -0.0901457 -0.508756 0.856178
-3.27517 -7.90603 6.81411 158 121 105 0.142787 -0.566796 0.811391
7.14528 -5.26436 -3.54292 88 50 37 -0.291989 -0.538323 0.790539
7.02439 -2.18895 7.82507 114 72 56 -0.135166 -0.670327 0.729652
12.2036 -3.568 6.60428 185 166 162 -0.11204 -0.66774 0.735915
-10.8444 5.93448 7.57885 109 88 69 -0.103191 -0.71608 0.690348
-14.2262 3.53707 -1.68688 200 163 170 0.00168189 -0.652803 0.757526
-5.7672 -4.00733 8.53463 145 106 109 0.123825 -0.688039 0.715032
11.4809 -3.97752 -0.241917 161 129 118 -0.183177 -0.585964 0.789362
-6.9329 1.29359 8.83015 168 140 128 0.158076 -0.6694 0.725889
-10.3025 0.651365 8.92649 175 137 134 0.0162571 -0.691028 0.722645
-14.0198 2.772 -1.99818 150 118 119 -0.00113089 -0.644669 0.764461
2.6455 9.01981 7.60034 98 60 41 -0.101495 -0.743976 0.660453
12.3182 3.57682 8.54739 134 124 114 -0.408714 -0.648241 0.642446
8.10404 6.52116 8.52132 71 43 22 -0.318106 -0.692745 0.647234
-10.9731 -0.199102 9.03555 168 126 110 -0.0495607 -0.700594 0.711837
-13.924 2.84271 1.40222 180 168 170 -0.0579527 -0.652971 0.755162
-7.48155 -9.63884 -0.531749 192 168 166 -0.157407 -0.518074 0.840728
-8.15309 -4.83009 8.56074 161 88 95 -0.070536 -0.64947 0.757109
11.6968 -3.9465 -3.05709 159 108 105 -0.0743546 -0.590321 0.803736
-13.2743 -0.364822 3.25007 178 161 167 -0.0123242 -0.655759 0.75487
15.7573 0.902447 7.93215 121 94 75 -0.388771 -0.639858 0.662902
-1.78061 -7.94828 6.55699 168 136 137 -0.0934558 -0.60125 0.793577
11.6767 -3.63834 6.64831 196 177 173 -0.34938 -0.606331 0.71435
-2.71836 -8.21214 -3.5167 184 130 130 -0.16521 -0.525714 0.834464
-9.77804 -10.4045 0.956368 217 196 203 -0.0684723 -0.538861 0.839607
-11.189 -6.46809 -2.31598 131 111 112 -0.0987505 -0.543189 0.833783
-12.3795 -2.48173 1.41319 161 144 150 -0.0256105 -0.623577 0.781342
6.25681 -5.48628 -2.1566 167 140 123 -0.28555 -0.546314 0.787402
13.2659 2.74171 8.43613 116 99 91 -0.421833 -0.637652 0.644559
2.75486 -5.34393 7.11954 79 68 64 -0.234503 -0.617399 0.750884
-5.43923 -9.03955 -3.28682 161 117 116 0.0525918 -0.520581 0.852191
9.44843 -4.55692 -1.21807 202 151 147 -0.333711 -0.541589 0.771569
14.6411 0.360758 7.87722 168 145 127 -0.240539 -0.667841 0.704365
8.37669 6.22568 8.55282 106 71 49 -0.313664 -0.706932 0.633926
-4.92303 -0.0445199 8.86491 174 139 135 -0.143522 -0.694088 0.705438
-6.31591 3.73212 8.53431 89 72 56 -0.116771 -0.722368 0.681578
-8.57035 -9.98924 -3.45756 155 123 128 0.0891852 -0.533886 0.84084
-5.89179 -2.30541 8.78084 112 91 72 0.373035 -0.596607 0.710567
13.9771 3.24612 8.47786 132 132 124 -0.230755 -0.713982 0.661046
14.9216 7.51354 8.70467 95 48 38 -0.187903 -0.703643 0.685258
5.10238 -6.51586 3.73854 155 126 118 0.0904934 -0.546437 0.832597
-7.5756 -4.56357 8.56535 188 130 119 -0.166785 -0.633894 0.755223
5.68695 2.75271 8.68156 124 91 82 0.0082276 -0.727249 0.686325
17.4527 -2.32244 -3.54537 188 138 139 -0.376529 -0.544341 0.749612
-3.72793 2.14831 8.77632 171 154 147 -0.122596 -0.698164 0.705363
6.88803 -3.33464 7.41791 140 103 95 -0.133514 -0.655424 0.743366
-8.24366 -0.331051 8.92076 165 117 107 -0.0925172 -0.69648 0.711587
3.04644 1.98655 8.7289 148 94 68 0.0270181 -0.725825 0.687348
-9.55512 -10.3017 -5.81238 179 152 167 -0.0659015 -0.494696 0.866564
-14.4477 4.51243 0.0651465 197 176 175 0.00473902 -0.672161 0.74039
-9.8944 -1.20267 9.01331 194 149 146 -0.0898351 -0.674638 0.732662
-10.7243 -5.93676 8.55678 196 136 144 -0.119581 -0.625146 0.771293
4.47113 -6.00925 1.18186 152 128 116 -0.283666 -0.553099 0.783336
-5.57524 -9.09585 -3.77981 138 114 104 0.280013 -0.445857 0.850179
8.26814 -3.89742 6.99096 149 102 92 0.125416 -0.565776 0.814965
-10.7001 -3.83062 8.96058 193 156 150 -0.118 -0.64825 0.752228
12.7012 -3.65616 -1.94281 178 129 125 -0.396676 -0.528331 0.750676
-3.63562 -8.47748 -3.18121 175 131 132 -0.153157 -0.526185 0.836464
-0.91812 -7.64598 -1.93895 167 117 94 0.083321 -0.565468 0.820551
-7.41292 -9.64687 -1.96411 161 110 117 -0.101019 -0.525367 0.844858
1.40238 1.20593 8.74844 164 118 95 -0.0785996 -0.700961 0.708855
7.87769 6.59372 8.50813 90 59 38 -0.277538 -0.709698 0.647535
4.81077 -5.90923 0.578513 167 138 120 -0.24634 -0.563977 0.788191
-3.27598 0.345026 8.84371 159 135 133 0.0215438 -0.702039 0.711812
5.45624 -1.89078 8.08073 127 85 69 0.079863 -0.649862 0.755845
-2.27158 -1.35057 8.71651 184 160 158 -0.15574 -0.666644 0.728925
11.7341 -0.617009 7.86346 158 134 134 -0.344981 -0.64012 0.686465
10.3136 -1.45966 7.73241 155 113 88 0.034654 -0.649589 0.759495
0.217267 -7.29803 -0.848239 145 111 101 -0.0299329 -0.564289 0.825035
-11.745 -4.47024 0.0289893 186 159 164 -0.0350901 -0.594868 0.803057
-11.6383 -2.86994 9.10109 171 146 139 0.137015 -0.637841 0.757883
-12.8175 0.738815 9.02545 99 65 66 -0.0201584 -0.70867 0.705252
17.5961 -2.25723 6.41378 201 173 169 -0.447763 -0.580218 0.680335
4.92691 -3.92363 7.42082 139 96 89 -0.294627 -0.627267 0.720924
6.09917 2.17796 8.63686 156 125 122 -0.20345 -0.697225 0.687376
6.03126 -2.6744 7.76699 183 154 146 -0.275954 -0.638301 0.718625
-8.49777 3.50855 8.48936 161 148 140 -0.10507 -0.705886 0.700489
8.96211 -4.69243 -0.902083 161 117 114 -0.322208 -0.555232 0.766746
1.05609 2.804 8.752 149 124 119 -0.239235 -0.686098 0.687049
-1.16156 -7.73235 -2.53568 154 105 98 -0.188579 -0.534878 0.823616
-0.754575 8.9058 7.29784 144 128 115 -0.185045 -0.739506 0.647216
7.84834 -1.17047 8.05165 156 109 91 0.0157751 -0.653851 0.756459
15.2212 -2.65063 6.56127 190 176 173 -0.155191 -0.618025 0.770689
-0.735842 -0.646439 8.71558 159 135 135 0.183408 -0.637361 0.74842
-1.94389 5.62906 8.3097 162 143 139 -0.192208 -0.709802 0.677671
6.71582 7.96717 8.2503 152 116 92 -0.286741 -0.721796 0.629913
8.82181 2.61701 8.57392 163 134 120 -0.330824 -0.679052 0.655319
4.37004 2.03848 8.68873 129 77 63 0.314348 -0.607595 0.729393
-5.07015 -8.30212 6.8864 180 169 167 -0.120554 -0.5999 0.790941
13.9968 -2.4572 6.83708 69 50 46 -0.375071 -0.610792 0.69732
8.39959 -4.88642 -3.03034 126 78 56 -0.347696 -0.52202 0.778847
-11.0156 -6.94939 1.04131 173 146 155 -0.0475329 -0.577233 0.815195
-14.4039 4.33101 -0.295362 178 143 147 -0.0498433 -0.653413 0.755359
-3.65642 -5.33122 7.97484 135 119 120 -0.225987 -0.614634 0.755748
-0.65153 -7.56143 -1.95432 164 116 96 0.164493 -0.505477 0.847015
-3.04365 -1.76364 8.71206 146 118 117 -0.228926 -0.651438 0.72334
13.6605 1.46588 8.21094 157 138 132 -0.309304 -0.668862 0.675984
0.13943 0.836448 8.77701 147 122 117 0.230873 -0.678894 0.696995
15.967 -2.76334 -4.80626 199 150 154 -0.385088 -0.533707 0.752904
-1.25556 9.89185 6.90224 119 109 100 -0.175913 -0.74393 0.644688
-7.95615 -5.3213 8.43027 191 129 132 -0.0738999 -0.643763 0.761648
16.5266 -0.173276 7.45868 178 165 159 -0.430496 -0.622142 0.653921
-9.98348 -3.28141 8.92963 125 84 62 -0.128401 -0.652111 0.747171
5.34327 -5.7672 -1.68974 163 126 110 -0.275748 -0.54836 0.789471
-2.19746 -8.00885 -2.77026 178 129 124 -0.173842 -0.531945 0.828742
8.6202 -3.93071 6.93254 88 55 46 0.0745083 -0.593904 0.801079
5.61762 -5.70075 -1.67026 173 137 123 -0.250325 -0.55058 0.796366
-9.14716 -9.06745 7.06558 194 167 174 0.345393 -0.531185 0.773657
-12.0086 -4.12537 -3.50901 178 161 169 -0.0298088 -0.573849 0.818418
8.49244 2.04204 8.53319 160 125 103 0.0603678 -0.704396 0.707236
-11.0369 -6.8521 0.535077 169 146 154 -0.0468665 -0.574589 0.817099
-7.86203 6.58328 7.55369 114 71 54 -0.0900948 -0.736588 0.670314
10.1155 -1.67636 7.67155 125 83 61 0.00791674 -0.646873 0.762556
5.34137 -6.44732 3.93295 144 115 107 -0.295609 -0.577575 0.760935
4.00862 -1.28671 8.3195 159 141 137 -0.27699 -0.659947 0.698389
-2.07011 -7.95592 -2.48539 169 111 107 -0.148987 -0.535044 0.831584
-14.5532 4.64323 -1.72201 202 170 173 0.0254184 -0.655757 0.754544
-13.2972 2.91579 8.53311 109 66 57 -0.0122694 -0.721397 0.692413
6.42014 7.10279 8.38951 135 93 71 0.142279 -0.683236 0.716203
-9.72189 7.45503 7.04349 105 91 64 -0.0624829 -0.740158 0.669524
-1.16106 -0.555113 8.73235 146 120 121 -0.0104329 -0.694337 0.719574
-1.73825 -5.43453 7.69596 122 104 102 0.284811 -0.577151 0.765363
11.2626 -4.07773 -2.36531 190 140 141 -0.343665 -0.546827 0.763462
-10.81 -7.73714 -3.05661 192 161 159 -0.048486 -0.540451 0.839977
-11.3161 -3.33651 9.05605 143 127 93 -0.107931 -0.654208 0.748574
-0.0115443 1.51808 8.79109 173 140 133 -0.213576 -0.696548 0.684986
-3.83825 8.88217 7.02537 91 76 57 -0.159574 -0.726047 0.668874
11.4513 -2.4882 7.17513 95 71 61 -0.0771125 -0.611428 0.787534
8.88809 -4.72261 -0.461573 190 157 152 -0.293318 -0.560301 0.774614
-6.14504 -9.21178 -0.701199 191 162 167 -0.139911 -0.526439 0.838622
14.6248 2.94497 8.44066 120 91 77 -0.183266 -0.731649 0.656585
9.09818 -2.86003 7.33228 142 94 72 -0.348053 -0.623741 0.699862
9.87839 -1.29211 7.83541 133 91 67 -0.323408 -0.63992 0.697072
-13.1176 0.275856 0.860926 165 145 146 -0.0368928 -0.630729 0.775126
17.9908 -2.20501 -0.726762 183 148 146 -0.392191 -0.558516 0.730922
4.74658 -0.452303 8.42779 149 125 121 -0.0370662 -0.687154 0.725565
-5.64443 -6.47196 7.79372 163 147 148 -0.102067 -0.617986 0.779535
3.85248 9.25632 7.63484 157 130 113 -0.245392 -0.733837 0.633456
-8.53026 6.03367 7.73032 125 103 82 -0.101219 -0.718229 0.688406
-9.04687 -10.1823 -2.94197 165 125 123 -0.0758774 -0.514113 0.854359
8.02186 2.44824 8.58824 157 120 101 -0.290903 -0.680191 0.672841
-5.11022 -3.49686 8.58247 169 151 151 0.30159 -0.589668 0.749223
-10.225 -9.82292 -1.33892 185 159 162 -0.059313 -0.529483 0.846244
-10.2391 -9.72853 -1.89062 140 118 120 -0.0586347 -0.526766 0.847985
4.67957 -6.92035 5.19324 165 129 115 -0.291876 -0.583025 0.758215
-6.27273 -5.21815 8.29173 174 161 168 -0.187262 -0.623308 0.759224
8.52298 -0.616977 8.14901 164 114 89 -0.155134 -0.64951 0.744359
8.40683 8.06799 8.29878 144 102 80 -0.307723 -0.717798 0.624558
0.408438 -1.00003 8.62171 149 121 120 -0.123447 -0.681319 0.721502
2.04687 -6.83152 -6.09242 169 138 146 -0.222161 -0.517332 0.826445
-11.5001 -5.23154 0.578465 175 152 158 -0.0392522 -0.591321 0.805481
-2.04961 5.20786 8.39237 144 125 119 -0.0791746 -0.729896 0.678958
-8.00514 -5.08624 8.49244 177 111 113 -0.0730031 -0.646468 0.75944
3.46764 -4.88274 7.22699 180 169 167 -0.323025 -0.595693 0.735394
1.35013 4.21672 8.66154 158 145 139 -0.226362 -0.712724 0.663916
-4.76748 9.11607 6.86825 136 128 109 0.402477 -0.630426 0.663758
1.46505 -0.900372 8.57197 176 156 149 -0.28924 -0.646585 0.705881
12.8494 6.56309 8.61926 137 119 117 -0.367264 -0.69497 0.61817
-6.80874 -9.67069 4.66681 177 148 142 -0.120005 -0.57202 0.811414
7.98989 -2.17765 7.73119 176 143 126 0.0731779 -0.635853 0.768334
-7.89112 -9.78091 -1.76595 183 148 154 -0.0687693 -0.525655 0.847914
0.8561 -7.1513 -4.96151 182 138 139 -0.18271 -0.524379 0.831651
7.58078 6.4668 8.51771 103 71 48 -0.302779 -0.710813 0.634877
-5.72336 3.31634 8.62436 145 140 137 0.329804 -0.622176 0.710019
5.23441 -0.403155 8.41936 80 54 53 0.247868 -0.611455 0.751455
-5.78634 0.0191997 8.86621 121 110 92 -0.185942 -0.673344 0.715566
8.56586 8.50899 8.22837 118 80 57 -0.30817 -0.719794 0.622035
-10.5035 -2.78996 9.00662 115 67 57 -0.0586126 -0.678257 0.732483
-7.35017 -2.16002 8.86576 127 104 90 -0.129056 -0.662621 0.737752
2.88714 -6.505 0.647763 83 55 44 -0.0545418 -0.5676 0.821496
11.8261 -1.59045 7.51435 53 33 34 -0.19461 -0.65482 0.7303
-3.08501 2.03712 8.78741 111 88 82 0.037087 -0.706989 0.706251
3.21428 -6.41825 0.73336 75 47 36 -0.0595373 -0.568944 0.820218
12.2229 -2.9788 6.85758 106 92 89 -0.201829 -0.636528 0.744377
-0.603466 3.35231 8.67638 108 84 80 -0.00126004 -0.716576 0.697508
4.82418 8.76015 7.89382 116 83 64 -0.0783153 -0.745461 0.661933
3.26209 7.57483 8.11629 44 20 8 -0.202461 -0.71537 0.668771
4.19286 7.76479 8.13949 54 32 21 -0.0702919 -0.741325 0.667455
-1.3762 3.29699 8.69575 123 102 99 0.0105182 -0.716274 0.697739
15.339 -2.09964 6.79976 91 76 71 -0.245556 -0.637317 0.730431
-3.2082 -6.50744 7.45545 200 177 169 -0.0428091 -0.620529 0.783014
10.9113 -3.22666 6.92324 164 138 139 -0.182633 -0.637227 0.748724
10.9181 5.74281 8.59472 106 95 93 -0.169576 -0.722397 0.670363
-8.11563 7.29375 7.25448 152 135 125 0.10631 -0.729565 0.675598
10.906 -3.43131 6.83751 120 88 93 -0.182742 -0.634672 0.750864
-6.78736 -5.68533 8.19679 182 128 128 0.101366 -0.631444 0.768767
2.90283 7.11974 8.20542 149 112 94 -0.0521578 -0.73842 0.672321
-0.341942 9.9324 6.94291 106 78 67 -0.00480428 -0.748372 0.663262
8.12008 -4.93603 -0.74894 178 149 145 -0.129441 -0.569657 0.811625
-6.51891 -6.67923 7.83055 135 105 97 -0.0794949 -0.60896 0.789207
-11.5558 -1.05448 9.12368 102 65 46 0.172032 -0.674809 0.717662
-7.87932 7.27441 7.28257 108 75 58 0.103014 -0.729892 0.675756
-6.96983 7.5308 7.24375 102 76 63 0.0898272 -0.732243 0.675094
2.50418 -6.6134 1.5517 127 100 89 -0.204281 -0.553165 0.807637
-7.37798 -7.25463 7.70457 148 114 102 0.112166 -0.610746 0.783842
8.51947 -4.30945 6.79037 181 166 161 -0.147241 -0.629901 0.762591
-13.2302 3.37981 8.39362 97 64 55 0.18708 -0.702014 0.687151
10.7243 0.481424 8.22231 136 107 91 -0.175647 -0.679975 0.711887
-13.792 5.07666 7.66998 132 115 107 0.190356 -0.708335 0.679725
3.80907 -6.28291 1.71899 111 84 73 -0.069346 -0.577083 0.813736
4.97264 1.19693 8.61667 98 61 55 -0.0878487 -0.696857 0.71181
-0.581606 9.93481 6.93048 162 145 137 -0.00145936 -0.748309 0.663349
10.9739 3.82948 8.57399 114 103 97 -0.173808 -0.708362 0.684115
10.5477 -4.27814 -3.00249 196 151 145 -0.15915 -0.558367 0.814185
11.242 -4.05109 -1.2481 131 96 90 0.0553007 -0.555514 0.829666
12.1246 -3.82003 -0.140564 136 109 100 -0.186153 -0.579372 0.793521
16.8798 -0.163557 7.45344 147 125 114 0.0550187 -0.637203 0.768729
9.79075 1.3179 8.40116 152 109 92 -0.160562 -0.68978 0.705991
3.31116 8.9052 7.69916 126 97 79 -0.0567028 -0.74609 0.663426
3.68298 6.44327 8.39722 149 88 85 -0.0640373 -0.734807 0.675247
3.2441 -6.47223 1.95718 136 110 97 -0.0609502 -0.577189 0.814333
4.22528 -6.08867 -0.876921 135 96 81 -0.0732062 -0.560476 0.824929
4.35333 6.06102 8.47219 64 20 7 -0.0741718 -0.73226 0.676974
12.1151 1.50246 8.31671 196 165 162 -0.194399 -0.686308 0.70085
-3.20792 -8.36487 0.148901 164 140 128 0.299878 -0.515931 0.802427
10.682 -0.257977 8.06468 148 119 111 -0.176065 -0.672681 0.718681
15.4318 4.74755 8.65723 153 129 117 -0.234985 -0.706197 0.667883
17.3542 -2.37991 0.497573 159 135 131 -0.256546 -0.587478 0.767499
14.4138 4.60501 8.59434 78 67 61 -0.221081 -0.707116 0.671647
15.0747 5.5129 8.68538 125 97 85 -0.228309 -0.712766 0.663204
-2.45762 -8.12195 -0.382312 156 127 121 0.0270868 -0.543892 0.838718
2.93889 8.33999 7.87732 132 100 75 -0.0518337 -0.74398 0.666188
-9.2826 -10.2803 3.86453 226 211 216 0.140361 -0.545533 0.826252
-3.53085 -8.46023 0.0789822 199 166 159 0.311209 -0.469773 0.826113
-8.86035 1.09433 8.86077 124 90 81 0.126847 -0.69499 0.707742
16.0018 -2.22159 6.64396 140 101 106 -0.254922 -0.633486 0.730555
12.3039 4.84128 8.58334 140 151 147 -0.190915 -0.713285 0.67437
9.19582 -2.39821 7.50208 155 115 103 -0.15608 -0.652202 0.741803
4.62015 11.3182 6.89101 96 68 57 -0.0727659 -0.754349 0.652429
10.4645 -4.26122 -2.40971 167 122 119 -0.159066 -0.562476 0.811369
13.0321 -3.54337 -3.31795 140 90 79 -0.250843 -0.554781 0.793282
6.96122 1.77735 8.57898 133 100 85 -0.117559 -0.698964 0.705428
10.8253 -4.17359 0.667214 140 114 101 -0.169935 -0.583374 0.794227
-9.0733 1.0773 8.86832 113 82 77 0.130131 -0.694616 0.707513
-3.84198 -8.54806 0.59172 137 113 109 0.0490009 -0.545683 0.836558
16.8064 1.87101 8.15032 155 122 113 -0.259976 -0.677156 0.688384
-9.2397 -10.2244 -2.77259 190 165 168 0.127939 -0.500585 0.856181
12.3476 0.137972 8.03246 136 112 102 -0.111867 -0.678321 0.7262
-6.54315 -9.37487 -0.66678 158 118 119 -0.0726868 -0.519546 0.851345
-1.90144 -7.98265 -4.79333 124 92 81 0.0175617 -0.516029 0.856391
-3.98438 -8.56366 -0.993692 139 93 95 0.0501752 -0.534399 0.843742
6.84693 7.72023 8.29476 86 50 26 0.234104 -0.670465 0.70404
0.339977 -7.28333 1.2592 141 114 107 -0.0159142 -0.564633 0.825189
16.1705 -2.70329 -0.681789 134 105 99 -0.238254 -0.57933 0.779495
2.69942 8.10403 7.92374 93 56 38 -0.0485612 -0.742926 0.667609
-9.21198 -10.183 -3.7121 135 113 116 0.125974 -0.495108 0.85965
-3.11468 -8.27103 -0.792959 181 153 142 0.0369726 -0.53926 0.841327
10.5828 -4.24477 -0.808686 155 112 106 -0.163705 -0.573042 0.803009
11.476 -3.98103 0.242811 164 136 122 -0.178063 -0.58139 0.793901
-12.1109 1.96224 8.76111 158 122 108 0.174145 -0.695895 0.69671
10.2741 -4.335 0.476337 142 116 99 -0.161879 -0.581279 0.797439
-6.26162 0.917275 8.85258 131 113 91 0.0870542 -0.696517 0.71224
-11.4427 -1.90291 9.11615 133 88 82 0.171828 -0.667545 0.724471
11.4887 -3.96772 -0.557136 168 140 128 -0.176577 -0.57613 0.798057
5.78592 -5.63057 -0.466599 114 71 52 -0.0963909 -0.566852 0.818161
1.40866 7.17514 8.08983 105 80 60 -0.0304184 -0.738613 0.673443
5.43249 -5.73032 -0.340708 170 123 97 -0.0913896 -0.566994 0.818636
12.7568 -3.67521 -4.62624 128 96 85 -0.185105 -0.55101 0.81371
0.631414 -7.18531 -1.04085 133 100 85 -0.0198282 -0.549372 0.835343
11.9363 -3.85626 0.28845 194 172 158 -0.100567 -0.596792 0.796069
-9.00536 -6.73509 8.09791 172 110 115 0.492386 -0.468265 0.733678
13.4074 -0.652503 7.66762 141 110 81 -0.216408 -0.660866 0.718627
2.31751 -6.75019 -5.68589 135 106 111 -0.185601 -0.507557 0.841391
0.985848 -7.09149 1.39749 136 108 96 -0.0259273 -0.567536 0.82294
-4.69114 -8.78188 -2.98219 182 136 138 -0.0171699 -0.523946 0.851579
15.0718 6.45127 8.73329 137 108 92 -0.226171 -0.719689 0.656425
8.22277 2.7365 8.6 122 94 80 0.00767882 -0.739741 0.672848
16.6508 1.37563 8.0271 128 99 85 -0.258777 -0.672689 0.693199
11.7708 2.70874 8.4775 103 85 73 -0.1873 -0.697664 0.691508
12.1313 -3.81161 1.19486 150 135 128 -0.189132 -0.588461 0.786094
-10.4963 5.96799 7.59809 96 78 54 0.142204 -0.719845 0.679413
6.4867 -5.45476 -2.93207 128 87 69 -0.103442 -0.551423 0.827788
5.47826 5.86681 8.54819 111 71 46 -0.0908633 -0.730484 0.676858
10.9567 -4.13805 -0.94002 160 115 109 -0.168576 -0.57269 0.802252
11.5856 5.60456 8.59967 140 137 132 -0.179296 -0.720235 0.67016
-0.445183 8.10732 7.62878 164 131 114 -0.00345101 -0.741717 0.670704
11.4019 -4.03154 -2.28178 182 132 133 -0.171993 -0.564295 0.807459
-6.30819 -6.85065 7.73295 121 91 83 0.0940528 -0.616326 0.781855
12.976 1.19317 8.20675 131 116 111 -0.20735 -0.681212 0.702109
-2.55789 -8.17038 1.06592 147 132 125 0.0291704 -0.553596 0.832275
4.40159 -0.190313 8.48556 168 135 128 -0.0801185 -0.685024 0.724102
-7.27949 -9.58812 -0.570656 167 128 133 0.101306 -0.523998 0.845673
7.64592 -5.12316 -3.79435 150 113 95 -0.11841 -0.548105 0.827986
3.44345 -7.07051 5.1523 174 136 127 -0.0670779 -0.594837 0.801043
1.42283 8.23534 7.75015 99 70 56 0.0472597 -0.743321 0.667263
11.9465 0.714483 8.1898 178 163 158 -0.19325 -0.679307 0.707952
-8.78478 -4.67793 8.63852 158 109 112 0.0459892 -0.647083 0.761032
16.1634 -2.70591 -0.091645 143 116 105 -0.239719 -0.583103 0.776225
-8.89513 -1.50975 8.96623 166 105 102 0.131161 -0.67397 0.727022
15.3136 -2.923 -0.0358903 142 124 110 -0.22883 -0.583076 0.779525
16.9006 1.646 8.07246 171 142 134 -0.261664 -0.674552 0.690298
-8.15049 -9.06292 6.91237 171 160 154 0.125875 -0.583961 0.801963
-10.1685 -4.93706 8.71785 205 149 152 0.156207 -0.638421 0.75367
13.4525 -2.2269 7.02104 109 82 75 -0.218936 -0.642075 0.734716
-2.58186 -8.15855 -3.44997 137 79 75 0.0278874 -0.522729 0.852042
9.84937 5.18555 8.61027 124 112 100 -0.155289 -0.720424 0.675925
3.431 5.63372 8.52209 136 96 71 -0.0609637 -0.730365 0.680332
10.7646 -4.1938 0.306304 145 117 95 0.145468 -0.536386 0.831342
8.29874 3.96399 8.63282 135 108 91 -0.134649 -0.714172 0.686897
7.86742 5.95247 8.57309 89 53 31 -0.125516 -0.72848 0.673471
-5.07381 -8.91352 -1.32061 168 109 111 0.0665926 -0.527839 0.84673
-0.0578291 -7.39935 -0.152651 200 170 160 -0.00958131 -0.553388 0.832868
-1.70948 -5.85291 7.52685 185 168 161 0.356304 -0.540456 0.762204
7.68622 -5.05658 0.959974 149 122 111 -0.125849 -0.580737 0.804305
-1.6441 -7.56656 6.75047 162 146 133 0.0160032 -0.603516 0.797191
-2.80172 -8.23805 -2.90519 195 139 138 0.0313519 -0.525416 0.850268
1.06607 0.760025 8.7332 146 103 84 -0.0274639 -0.696709 0.716828
6.72031 9.15522 7.93543 114 77 51 -0.104608 -0.7464 0.657224
12.6849 5.30679 8.62053 139 111 97 -0.111199 -0.726984 0.677591
11.2165 -4.10153 -3.43664 178 122 121 -0.167295 -0.556446 0.813867
6.696 -5.3629 -0.409015 155 114 96 -0.0256311 -0.571983 0.819865
7.24947 -5.23127 -3.4393 112 74 55 -0.113419 -0.549687 0.827635
-8.29202 -9.92193 -3.0135 152 120 121 0.113351 -0.503273 0.856661
4.49443 -7.17104 4.99304 148 112 100 -0.0839482 -0.591788 0.801711
14.4831 7.15597 8.67594 101 49 38 -0.216428 -0.725467 0.653343
10.402 3.65224 8.56697 69 52 45 -0.231086 -0.695644 0.680205
-7.25485 -9.58407 -0.170995 195 167 166 0.101454 -0.526796 0.843915
4.03425 3.05998 8.70884 137 105 94 -0.07197 -0.712795 0.69767
12.0925 -3.80633 -1.34965 154 120 118 -0.183119 -0.571554 0.799871
16.7608 -2.48882 -3.38408 156 98 97 0.00963037 -0.536843 0.843627
-4.85384 -8.84924 -1.20489 206 147 149 0.0633293 -0.529443 0.845978
15.0931 -2.73358 6.54073 161 137 135 -0.242798 -0.630227 0.737471
-6.53252 -9.37132 -2.54494 125 96 92 0.0875168 -0.513756 0.853461
6.24444 -5.49401 -1.64689 164 129 109 -0.0188376 -0.562472 0.826602
10.9876 2.64765 8.50339 117 93 81 -0.176062 -0.698877 0.693233
9.47719 1.56666 8.4425 176 143 124 -0.155534 -0.692603 0.704351
13.7736 -0.0502988 7.82544 129 102 73 -0.220787 -0.66636 0.712192
6.85849 -5.31934 -0.861028 126 84 70 0.202097 -0.510784 0.835617
-7.71725 -8.12596 7.34285 176 166 164 0.118254 -0.598171 0.792595
-7.90185 -9.79383 -3.64292 154 123 121 0.106644 -0.500992 0.858857
4.10342 1.26958 8.6573 125 76 61 -0.074411 -0.698513 0.711718
-10.0571 0.352442 8.95076 167 130 121 0.146358 -0.68789 0.710905
-7.25889 -9.59212 -2.01109 182 133 137 0.0991334 -0.514308 0.851857
-9.17363 -10.216 0.527955 175 134 138 0.132516 -0.522659 0.84218
11.6931 0.19861 8.09524 138 112 95 -0.190337 -0.674829 0.713006
13.706 4.27962 8.56756 81 86 89 -0.211851 -0.706127 0.675651
-2.57217 -8.15546 -1.55692 154 121 114 0.0284155 -0.53541 0.844114
0.61509 10.1288 6.96857 148 122 109 0.233597 -0.697686 0.677249
6.9786 -5.31047 -3.12318 80 48 35 -0.110075 -0.551197 0.827082
6.40011 3.99485 8.67252 150 106 79 -0.10657 -0.717152 0.68872
-10.2919 5.37118 7.85635 122 104 84 0.140532 -0.717787 0.681933
0.837511 2.38647 8.76981 179 154 147 -0.0234725 -0.709829 0.703983
11.4128 -4.02304 -3.12204 193 133 133 -0.301991 -0.533191 0.790259
13.4116 -3.4597 -1.36773 158 103 96 -0.200681 -0.572698 0.794823
-1.13919 -7.70328 -1.36131 162 112 85 0.00681971 -0.541786 0.840489
6.59715 -5.41668 6.57119 200 175 171 -0.117963 -0.61991 0.775755
11.4399 -3.68058 6.66702 201 178 172 0.146298 -0.589336 0.794531
6.82043 -3.18183 7.48765 155 113 99 0.221199 -0.592693 0.774459
-4.0371 -8.59728 -3.46299 160 116 117 0.0494125 -0.5175 0.854255
16.5197 -2.59823 -0.610205 137 114 100 -0.242883 -0.580084 0.777503
-10.0226 -2.56754 8.98473 160 126 99 0.150527 -0.663022 0.73331
-1.44795 -7.84262 -4.11712 158 133 113 0.0137046 -0.531784 0.846769
-6.73025 -9.41155 -4.22502 159 127 130 0.337677 -0.42895 0.83784
-2.41243 -6.12958 7.51046 157 133 129 -0.00301704 -0.622504 0.782611
3.26863 3.4908 8.71437 137 113 101 0.215729 -0.663922 0.716009
14.8893 -3.03201 -0.299199 137 112 105 -0.281342 -0.573546 0.769345
10.8727 -0.820952 7.89356 108 72 60 -0.17963 -0.666227 0.723792
8.25818 -1.07424 8.04903 136 86 63 -0.14053 -0.669584 0.72932
-6.75856 -9.34264 6.52566 193 161 162 0.102419 -0.579344 0.808623
3.10219 6.03605 8.4406 122 80 58 -0.0558218 -0.732736 0.678219
-6.02729 -9.18112 -0.947076 167 119 119 0.0815425 -0.526869 0.846026
-12.2261 -0.0352955 9.09735 162 132 124 0.180277 -0.681998 0.708787
7.99225 2.57339 8.59764 178 148 137 0.0198575 -0.726149 0.68725
-6.22528 3.14027 8.63191 122 103 88 0.0842271 -0.712121 0.696986
10.5535 1.24006 8.36043 161 127 99 -0.171982 -0.687513 0.705512
-2.35237 -8.08806 -1.65066 176 139 130 0.0250625 -0.535543 0.844136
12.4206 -0.541588 7.81911 132 96 72 -0.202005 -0.665038 0.71897
-6.08442 1.4021 8.8289 107 93 84 0.0838419 -0.700366 0.708843
10.3432 1.36333 8.37947 139 99 74 -0.168673 -0.689024 0.704837
1.28769 -6.98876 -0.697333 151 112 97 -0.0297768 -0.553677 0.832199
0.0713898 2.32317 8.79821 157 128 124 -0.0116846 -0.709711 0.704396
-6.59113 -9.40975 0.390628 154 135 131 0.0918341 -0.533152 0.84102
13.5892 6.31879 8.63709 107 62 56 -0.205934 -0.721437 0.661151
8.51367 5.4593 8.6012 126 90 66 -0.135582 -0.724356 0.675963
-0.931915 9.36517 7.10583 141 128 119 0.00345502 -0.746 0.665937
15.6491 -0.192191 7.58795 189 172 164 -0.247481 -0.65902 0.710243
8.70622 3.37019 8.61318 150 117 102 -0.141504 -0.709021 0.690844
9.87322 4.06636 8.60366 87 68 53 -0.157482 -0.712258 0.684023
-0.464246 -7.50722 -1.83409 157 110 92 -0.00331615 -0.540648 0.841243
3.00479 -3.37844 7.85425 155 127 124 0.318477 -0.546999 0.774187
-1.17003 9.3719 7.08955 120 107 99 0.00680138 -0.745915 0.666006
0.0455269 -7.40192 -4.31188 142 110 89 -0.0105917 -0.525298 0.850853
-7.91443 5.53384 7.96293 153 118 96 0.106136 -0.722798 0.68286
-4.64299 -8.76178 -1.33216 165 106 110 0.0599968 -0.529637 0.8461
7.32538 7.94021 8.27154 130 85 62 -0.114872 -0.740308 0.662381
14.1871 3.5559 8.52104 144 148 149 -0.220141 -0.699315 0.680071
8.73794 3.83856 8.61991 122 90 75 -0.141274 -0.712506 0.687297
4.53348 -5.98899 0.958501 156 127 111 -0.0794881 -0.574156 0.814878
2.18032 5.21974 8.54795 106 79 62 -0.0426877 -0.728381 0.683841
13.7582 -3.36068 -1.2881 166 115 98 -0.205428 -0.573586 0.792969
-12.4096 0.462115 9.03599 97 62 58 0.181959 -0.685308 0.705155
-7.88834 -9.79842 -0.268005 174 133 137 0.111176 -0.523189 0.844934
2.91275 1.76258 8.71937 152 91 70 -0.0557189 -0.703722 0.708287
-2.35374 5.86012 8.21107 169 146 138 0.0245924 -0.730767 0.682183
-4.26679 -8.67806 -3.77689 183 131 133 0.0526146 -0.5145 0.855875
12.3163 -3.77485 -1.98915 197 153 152 -0.184813 -0.567359 0.802464
7.53738 6.1189 8.55782 97 62 40 -0.120512 -0.729947 0.672796
2.46544 -0.501518 8.5713 157 119 108 0.32075 -0.582472 0.74689
14.6928 -3.1079 -3.65223 163 115 101 -0.212017 -0.559492 0.80126
6.94851 -5.28853 -1.70839 102 67 61 -0.111495 -0.560828 0.820391
5.76068 -5.65494 -1.43511 152 120 105 -0.0949144 -0.559995 0.823041
5.83601 -5.63941 -3.53131 143 108 89 -0.0936103 -0.546145 0.832444
5.52278 -5.71943 -1.35264 175 138 122 -0.091582 -0.560086 0.823357
